ply
format ascii 1.0
comment PCL generated
element vertex 1503
property float x
property float y
property float z
element face 0
property list uchar int vertex_indices
end_header
4.1696563 3.8289135 -5.2462196
10.681495 -7.7680898 -0.42102084
-11.393404 -11.682801 -25.795712
1.3797467 10.442198 -3.5567088
-14.595674 -3.0225542 -12.52813
15.751414 0.81895775 -7.4523697
3.0546095 10.817199 -22.505247
14.904325 4.5057392 -26.709007
-11.593603 -8.4163904 -0.83379972
6.9639478 6.0143099 -28.24622
-12.032833 11.845028 -4.5145793
-7.9192262 -4.7663231 -28.24622
-8.6529455 -2.8849194 -5.2462196
-15.109564 4.4182973 -18.347017
2.9501336 12.508368 -14.153002
-7.1992679 11.817199 -26.498785
5.9791961 11.817189 -19.549683
-14.257194 10.500808 -8.5789795
-13.513144 -0.6540283 -4.7063293
8.233532 10.817199 -24.639957
11.738865 -13.432802 -10.228761
-13.450294 10.554917 -4.2462192
5.6337132 2.1070285 -5.2462196
-12.470674 5.0579433 -3.178169
-8.3407164 9.5506668 -27.24622
10.532644 13.301778 -9.7462187
14.019645 -11.666741 -20.276855
-13.331814 -12.819801 -15.877274
10.699015 0.053319115 -24.988659
-1.1204672 -6.3048148 -5.2462201
-11.197043 -11.428022 -4.2389607
-12.470694 8.8610802 -2.5653586
14.177935 -0.43214002 -5.5990295
1.7821625 10.817199 -19.476957
-14.595674 9.6034384 -11.23028
-9.7181034 11.817199 -25.299606
12.498694 -11.510012 -28.24622
8.9752579 1.4961627 -5.2462196
0.36671406 -7.5471258 -0.25528941
1.4363027 -13.642291 -14.675474
10.667335 11.817199 -24.439739
9.4524345 3.6541774 -5.2462196
1.5448936 -12.009881 -17.629822
-14.573624 -2.5253808 -15.863396
-2.209203 11.817199 -24.455797
-6.3910971 -8.0736437 -0.34556043
3.5283074 3.1778786 -5.2462196
12.268595 -2.7588308 -0.93483937
13.644944 5.0560641 -27.24622
9.4481316 -3.3665204 -5.2462196
15.171675 -10.521832 -16.946806
-11.504704 8.3445826 -26.525621
1.8754696 -3.3890285 -27.24622
-13.907814 -5.6362257 -4.6088605
0.72083014 10.817199 -23.069675
-15.595674 -3.4709322 -12.427059
-7.9229398 13.567199 -14.280725
6.959918 3.1239944 -0.16935907
1.2707362 -4.4936275 -27.24622
12.523894 -12.682781 -19.200264
8.7138577 10.442198 -1.5920882
6.9579349 -7.9929423 -28.24622
-4.4601879 4.9783487 -27.99622
-14.221364 -2.3570678 -17.675577
-12.470674 -0.47681689 -3.5775394
14.851105 -9.5878477 -27.769434
14.788415 10.279919 -25.640104
-3.1359761 0.12110439 -0.049539562
-11.995024 -11.096392 -27.24622
-3.4388139 11.414198 -7.605329
12.484244 12.567199 -12.634799
-13.264884 -12.682792 -19.590799
-14.095674 -8.981061 -24.201864
-3.099673 -0.77570236 -27.24622
-12.470674 -6.2120547 -2.9041502
-8.7098188 -13.432801 -12.325951
9.719244 12.996978 -7.6795592
-10.209703 -12.609492 -7.160521
15.404325 -10.588491 -11.16116
12.779325 8.001235 -2.1366003
13.303334 -11.973972 -4.3593202
14.442184 -2.6522605 -6.3262901
9.5276041 10.817199 -18.351845
6.2927251 10.817199 -21.007631
1.9276036 5.9536133 -5.2462192
-15.223734 1.9751253 -17.759686
-15.095674 8.7433815 -19.657412
-1.1650052 -6.7255387 -5.2462201
-7.3401222 -11.591981 -25.053276
7.840919 -3.2263215 -28.24622
3.1515124 0.77215469 -27.24622
11.820325 11.817199 -24.665777
-3.8950462 -3.3959775 -27.24622
14.528934 -6.0562253 -6.4296803
-6.151957 -11.325301 -28.24622
6.7526698 -12.674852 -4.4162908
3.5319955 -14.392272 -10.581901
8.5352612 -10.16858 -27.24622
16.404324 8.9982033 -13.722154
-12.721933 -5.1585894 -6.2546597
15.404325 -10.241113 -12.37785
-12.635364 13.567199 -13.66598
-1.2552851 9.4701614 -0.70324856
-0.98433918 -3.2496405 -5.2462196
3.2897394 -6.4495888 -27.24622
-5.116447 -11.152872 -5.2462201
-1.6283561 8.7909575 -27.24622
-14.095674 6.3112121 -22.580585
16.404324 -11.363431 -10.946421
9.7875433 10.240568 -1.116569
-11.870503 -10.007599 -2.0935292
-13.519414 -8.4503422 -6.5519509
13.363484 6.1465821 -5.2462192
16.404324 10.440609 -13.177939
-8.949769 -2.7351215 -27.24622
5.1939468 -12.051602 -5.2462201
-10.358144 4.8241019 -28.24622
-4.5887461 -12.682792 -19.581369
-8.8613539 -7.5946746 -0.31830058
14.904325 8.1567535 -21.106558
-13.463373 -9.9789324 -4.5695901
15.434404 -11.108962 -6.5813909
5.5461869 11.221707 -6.9022288
4.68923 -13.914262 -10.131721
14.591174 -13.078082 -6.0522809
14.545674 -8.3773899 -25.296326
-0.9243992 -1.6647344 -27.99622
-5.6367331 -10.307801 -1.33915
-10.769544 2.3610966 -28.24622
5.44627 12.509728 -14.178933
-14.095674 0.55435568 -25.377157
-14.200193 -8.580677 -28.24622
7.9928179 0.059496656 -26.224907
-14.095674 4.2496023 -24.283129
-5.8296108 11.881048 -9.5513487
7.698359 4.1220093 -27.24622
-0.15182568 11.817189 -19.102581
-4.3858151 -14.303331 -16.036516
-14.513523 -2.9476092 -9.1819696
-8.2261057 -1.8812774 -25.630991
-2.8841929 10.759027 -5.2462192
13.632235 -12.682781 -18.886105
7.9843359 7.5816364 -28.24622
4.142323 -12.248452 -5.113461
1.3792664 -11.682801 -19.353682
-3.038372 -12.682801 -25.451466
15.404325 4.627409 -15.055209
-5.9657969 -13.102672 -16.230431
-14.264383 0.4241865 -17.454275
-9.3268232 12.567199 -12.740418
15.904325 -2.489675 -18.929327
13.798494 -3.2622035 -4.1018505
-0.0046896036 13.050248 -10.162139
0.23049998 -7.4173713 -27.99622
12.318455 11.817199 -26.09005
-11.433054 11.817189 -19.790121
-14.595674 -5.1677103 -13.94673
-15.588533 -0.65591717 -9.9695797
-2.038136 10.817199 -20.609617
12.382854 -12.682801 -25.501949
13.332395 11.420058 -5.2462192
-6.454133 5.6455564 -27.24622
5.1435351 12.690739 -15.968505
-11.095504 -11.682801 -26.964615
1.9279376 12.360079 -17.620525
-13.520264 -11.293262 -4.7259107
8.366291 6.775207 -27.24622
14.498565 -2.8066285 -5.192009
-0.96799022 13.369908 -12.574598
12.823964 -12.473971 -28.01033
16.404324 9.7851982 -10.21221
15.904325 7.2581682 -21.33543
-6.5596242 -12.005822 -4.4468503
8.7790108 -14.398962 -9.1532402
-14.095674 0.37597466 -20.935017
-13.325093 -5.5527167 -5.2462201
-10.409174 -3.0225456 -28.24622
13.286795 10.817199 -18.58769
14.982514 7.0901513 -17.91996
10.372379 7.9377007 -25.549217
15.310715 8.5739126 -16.231491
11.685285 11.817199 -26.989855
14.904325 7.7691159 -25.544474
15.404325 7.2459469 -11.148629
-15.095674 1.3496803 -19.026247
-9.0680561 1.5325267 -5.2462196
15.307884 2.2238681 -16.246063
9.7083893 -11.682801 -20.593788
16.205984 11.432089 -14.013168
-14.805063 2.1274207 -7.0740299
15.236195 5.5822396 -28.229755
16.125574 -3.86585 -17.280251
-11.561093 -12.682792 -21.850719
0.3298251 -12.682801 -25.120054
12.277624 -11.682801 -22.380844
-3.1889842 -12.685513 -4.44558
4.2704582 -13.304832 -15.800962
10.745284 -4.0284615 -5.2462196
-0.52503949 -13.744561 -14.39622
-10.602714 11.817199 -26.671322
7.1452851 10.442198 -2.0928493
-13.202374 -12.682801 -25.191942
3.2053175 -12.682792 -20.327326
14.243204 -13.306612 -6.1520295
-4.559432 12.631779 -15.598443
0.21877068 13.067199 -14.894458
2.9055164 -7.0363469 -27.24622
16.404324 -1.747541 -14.758619
15.404325 -0.31537223 -14.741665
9.8535738 -2.4815314 -5.2462196
15.904325 1.2220213 -20.82118
-14.595674 2.6748188 -11.82401
7.0838952 6.6903343 -27.24622
-4.2325711 -5.2846117 -27.24622
-6.0784011 -13.904592 -12.699531
-0.80891019 11.625579 -11.638749
-12.701633 -6.6471496 -5.2462201
-8.1246586 -12.263472 -17.257072
-12.477843 -14.432801 -15.204103
15.904325 -4.0151896 -23.953749
-14.595674 -11.267382 -12.54355
0.20772527 13.932899 -11.447409
10.470704 9.3981667 -24.99622
16.404324 7.7904634 -10.29678
-9.6817131 -0.10648797 -5.2462196
15.113315 -1.9346894 -28.24622
-14.446564 -4.2152114 -16.51701
-15.594434 -6.9858241 -13.375729
14.471254 -9.6132097 -5.2462201
-15.095674 -10.390642 -25.695885
-9.7136736 13.512639 -15.926412
-9.0906763 10.817199 -23.817638
-11.405784 -11.810621 -28.24622
-13.417423 -6.8610897 -4.4433503
-13.557214 -12.609282 -22.586241
6.3073711 -7.2906194 -28.24622
-15.095674 7.4652195 -22.547617
13.463594 10.817199 -24.986645
14.449325 13.021468 -8.6058989
-12.438764 -9.1131554 -1.5176109
-1.0988542 -13.698292 -7.2281804
-12.025414 -2.2637537 -0.97010052
-13.294973 9.9614086 -24.99622
7.1705112 10.158158 -27.24622
10.706164 -5.7664084 -28.24622
15.904325 -10.605341 -19.45602
15.404325 4.5694628 -10.560479
15.751945 -2.2386303 -7.4538193
-13.898833 -7.1394038 -27.24622
-1.4131742 -13.043992 -5.430491
16.404324 0.4806492 -13.915876
-10.330693 -12.826912 -4.8340802
-15.595674 4.4471936 -11.37126
2.3939843 -11.006832 -5.2462201
11.261464 -1.5509853 -5.2462196
-2.467586 -12.682792 -19.800943
14.182955 -2.4895995 -5.8863201
13.152795 -13.030081 -17.908043
-14.095674 9.7738791 -23.493557
4.0563173 -0.49135414 -5.2462196
6.271069 -4.9371047 -0.17994902
-13.271904 -13.951241 -16.482094
3.0342696 11.400968 -7.3530288
-1.8853 -13.685142 -16.945183
5.083569 -10.05303 -5.2462201
-3.3763511 -10.939872 -5.3592
3.8981845 -12.682801 -25.296101
-13.584864 9.749939 -24.99622
7.4902749 -13.503211 -15.999177
5.345892 -11.623121 -28.24622
-0.46717715 -12.682792 -21.8929
-12.849514 -7.6130924 -10.33715
1.4449456 11.817199 -26.24394
12.583735 -6.4059815 -27.24622
-15.595674 7.8601055 -14.732758
-0.5042302 2.9516385 -27.24622
10.311826 12.567199 -12.718389
12.779325 1.0047365 -1.5226593
0.73936284 -10.307802 -2.0156407
14.661984 -5.6712246 -4.4591794
-11.946544 -12.601302 -7.9404998
-3.2072001 11.413948 -4.2462192
14.695644 10.420109 -21.921471
3.2962046 12.467369 -14.045345
-9.5637665 10.817199 -25.8382
3.5374424 13.821568 -12.582479
-14.032474 5.17663 -8.1697493
-4.9808049 -10.915241 -27.24622
-7.6292539 -1.5749935 -25.155174
-3.606091 -4.1487226 -0.12595958
-6.5804663 -7.851903 -27.24622
-4.9780002 -14.218182 -13.555701
8.1417065 -13.586171 -15.036478
-3.0582891 -5.2091837 -0.16472076
-14.091574 -10.719221 -25.415318
-12.408383 11.817199 -25.466238
-14.707503 -0.79352719 -6.8059902
-1.7951692 7.3093014 -5.2462192
-10.747893 11.581978 -6.7156692
12.774505 11.774018 -16.704182
-14.475574 -8.887044 -28.220095
15.404325 4.1286769 -13.605666
15.950805 -1.7023968 -18.179401
-8.5170546 -11.682801 -25.035347
1.6637496 3.5470753 -0.088498913
0.47892508 -4.0558724 -0.083009899
1.0762147 -5.5841737 -27.24622
1.5990386 -13.342821 -13.558625
14.275784 11.948069 -11.313028
-4.8943138 10.817199 -18.52182
7.2066469 -13.170221 -16.191433
-12.844234 -1.8965594 -6.2462196
12.401794 4.7993183 -5.2462196
16.240435 -4.7018709 -16.689367
15.904325 0.2249769 -26.715082
4.4867339 5.5398469 -27.99622
-2.7009261 -13.187562 -5.8249497
15.404325 3.9886918 -11.826349
16.188993 11.077298 -8.6546183
-10.810993 11.817199 -24.295422
7.0547609 -13.517363 -9.3151302
-15.095674 5.5437484 -25.324135
-15.595674 -10.398944 -10.07084
10.807084 11.817199 -24.707624
-15.095674 -7.1212859 -19.314148
-13.594543 0.49452856 -4.2445087
16.404324 10.904388 -15.356096
1.4387876 12.801208 -15.420245
-10.681534 -1.3084589 -0.4286595
-15.473763 -12.214202 -10.759721
-13.355634 -3.8652115 -6.2831402
-6.6075878 -8.0712662 -28.24622
-2.5950801 -5.2614465 -27.99622
-9.1830711 10.888369 -23.24622
-15.592883 -9.7344484 -14.633109
15.745805 -12.757872 -12.872581
14.794914 8.0939245 -7.7482095
15.904325 -5.4477096 -22.115391
8.6416988 -10.42461 -5.2462201
-8.4450598 0.33259878 -5.2462196
8.0602198 6.7227783 -27.24622
-15.595674 10.939137 -10.388729
-13.793103 -6.3085089 -4.34166
-15.095674 2.6469865 -24.658871
-8.5924749 -6.4955096 -27.24622
13.297415 6.2365685 -5.2462192
-5.068449 -12.682801 -25.537785
-12.537423 -7.3938723 -9.7013597
-13.260903 -0.76737195 -9.0462198
-12.231853 -1.8859394 -5.2462196
-1.9123102 11.860258 -4.5564494
15.600095 4.9569597 -7.0366192
15.470255 10.695639 -23.019476
10.744644 -10.517202 -3.9962201
13.698165 1.8536656 -4.0342102
0.18583168 12.521278 -14.399356
1.6273596 10.817199 -20.810333
-4.6107001 0.85031044 -0.087400399
-6.2167931 10.817199 -24.913897
-2.4954221 10.817199 -20.265079
10.666675 -1.6706176 -0.3551293
16.013464 7.9464664 -8.1723499
-3.2993121 -2.2544274 -27.24622
-12.470674 0.080870695 -3.5520306
12.779325 3.9512434 -2.21187
-14.001054 8.0800295 -4.8650393
13.206425 10.713538 -5.2462192
-14.382383 -1.3759825 -16.847229
-9.1538887 8.9228439 -5.2462192
-15.422374 -9.9462805 -16.737766
10.794325 -9.7650709 -26.287258
6.1832352 11.141718 -4.4509482
15.400015 -0.175883 -15.772127
-14.095674 5.6687603 -18.393042
7.751554 10.771699 -25.432825
-15.595674 -5.2652912 -14.480106
14.742775 12.880548 -9.2462187
16.404324 5.733387 -15.305992
-4.2488599 6.4979014 -5.2462192
2.7238314 -13.371222 -14.10046
-13.789464 1.7833867 -7.29391
-13.545464 -11.887241 -17.133396
-14.529963 10.759109 -14.028851
-14.231884 -4.0487795 -17.621468
-15.595674 1.1854241 -13.542166
-12.470674 7.7984004 -2.9736688
15.334934 4.1077628 -16.106932
14.852594 -10.958211 -28.24622
-13.885783 -11.773132 -4.5483308
1.4496936 -7.1052237 -5.2462201
15.904325 8.6717691 -23.376337
-15.577304 -6.3825283 -9.1957397
13.720724 1.7456266 -5.2462196
-11.484123 7.1650252 -5.2462192
16.404324 -6.3967724 -12.66223
-12.496803 8.5092468 -6.8955283
6.7869782 -9.8206577 -5.2462201
2.1047795 11.659859 -12.292938
-10.152794 10.817199 -19.948448
15.404325 10.059518 -9.9267292
-14.095674 2.3704374 -20.608019
14.920614 11.998888 -6.4957099
2.4154356 4.6888638 -27.99622
-13.566874 10.563469 -28.24622
-11.678953 -1.0237 -6.1512794
11.487494 -10.292824 -27.707781
-15.095674 -4.3309164 -25.180637
3.0318844 -8.9714365 -27.24622
-11.644394 6.055531 -6.5463595
12.709105 10.817199 -20.705973
1.4295826 9.0528631 -27.24622
-9.7918234 -12.886422 -4.997561
-5.5975122 13.084778 -10.634039
2.5888114 -10.307802 -2.4766603
-6.3244872 -3.2654793 -5.2462196
9.6152143 -7.4685874 -28.24622
-1.4485811 13.808898 -10.590488
4.2763782 11.817189 -18.704514
12.483694 -10.279658 -26.261951
-13.635994 7.6449084 -27.229546
-9.242919 -8.5494289 -0.45740929
11.326064 1.0761266 -28.24622
3.3922725 11.420978 -4.0746188
4.1452069 -12.682801 -27.237127
16.404324 0.96025789 -10.70449
4.8693509 -14.417081 -13.737544
5.100348 -10.044665 -1.0769506
12.744474 -9.1151485 -3.2456994
-14.095674 -7.5413656 -18.749428
11.544365 13.269339 -16.284042
-13.079023 11.817189 -19.954472
15.404325 -1.8271151 -10.37626
-11.168134 -6.4453077 -5.2462201
15.904325 -10.376394 -20.592352
-14.186323 11.170909 -20.915855
-15.095674 -0.013986453 -18.74535
1.2299318 -13.382011 -13.800175
6.1170559 3.0439656 -28.24622
-7.4432249 -14.432801 -14.744252
-13.559753 3.1223295 -5.2462196
14.321625 -11.588202 -21.752064
-5.91816 -2.7155836 -0.13487065
-13.468134 -13.234742 -5.9545808
7.9094481 -0.37647438 -26.093075
5.3251419 5.0317473 -5.2462196
-14.060913 -8.0806913 -8.0396996
-8.3679209 8.1932516 -0.35664904
14.427215 -7.3166838 -4.9959702
2.2886393 8.9713678 -27.24622
-11.673254 -12.347972 -4.2462201
-14.616903 12.212519 -14.477498
-12.455604 -12.682781 -18.771807
-3.807796 -0.76474845 -0.075618774
-11.822944 -0.42526916 -5.2622089
15.404325 6.1707139 -10.242949
-3.734127 13.392559 -11.567908
15.904325 7.6391158 -22.532333
13.940564 -8.532793 -5.2462201
14.904325 1.6348245 -25.202648
15.904325 -0.71438885 -19.362759
11.607735 12.047558 -7.9948392
-5.5576968 11.909919 -11.967209
1.4473267 -12.151982 -7.0142407
12.939904 11.817189 -20.343031
2.8424516 -2.0366967 -0.08057031
14.904325 -4.8104725 -26.261238
-2.1336021 11.080708 -4.28334
-15.223523 -12.471501 -13.055011
-11.168484 9.0792103 -26.646219
-11.422923 12.814048 -7.1769691
-0.14244677 6.1023769 -27.99622
-14.136073 -11.214862 -8.2462206
13.547225 -3.6033535 -5.2462196
-3.0119441 11.574018 -16.998146
7.1021738 -14.418831 -11.04508
5.2268271 10.279229 -28.24622
10.501345 0.58916157 -26.504578
-8.7268724 13.117329 -16.507469
-6.3400731 -10.931791 -24.99622
13.475615 11.817199 -24.450214
15.904325 -3.7395577 -24.269142
-14.941343 7.8806019 -7.4484591
5.7152061 -13.454621 -14.633031
15.404325 -5.6511302 -15.226759
-14.408633 7.6105156 -8.9950495
-3.1565211 -3.1475525 -5.2462196
1.1028696 9.6834087 -27.24622
7.0504308 -14.321112 -16.010391
-2.845674 11.268489 -21.456963
-0.61326021 -14.043192 -8.1757708
1.4112016 -12.575891 -13.255224
-14.984063 -1.4716192 -7.5658293
-9.9981031 10.817199 -24.442417
0.95345598 11.817199 -26.559311
-4.2243853 -0.7777071 -27.24622
8.4724121 10.369159 -25.167204
-10.097024 1.4624864 -0.30918878
-12.338203 -14.432801 -14.207138
-15.095674 7.6186213 -18.783892
4.7857099 -12.530201 -12.38331
-9.9519634 11.123428 -28.234911
-8.6510363 10.210137 -1.0969596
16.404324 9.3961678 -11.328139
-7.1012669 -0.30611834 -26.772705
-8.846673 -11.257852 -27.24622
-12.945024 -6.114995 -6.3590703
8.330822 11.817199 -25.797873
3.8108726 -11.682801 -19.92684
12.392494 13.284689 -16.26148
12.779325 -0.38333479 -3.3216305
6.0392051 -12.370822 -9.3422108
-12.470674 -7.2005305 -3.8922102
14.298124 -5.5957847 -4.6413102
1.5968156 6.004725 -27.99622
-13.732643 6.4051499 -9.8717899
15.404325 -10.898841 -15.052665
-9.7570133 -12.682792 -20.908178
-14.087773 11.269459 -22.99345
2.0988514 13.063088 -15.716718
-12.224024 -13.432801 -12.77842
15.904325 -5.5584288 -23.936956
5.0589151 -11.682801 -22.422359
-6.5726399 10.817199 -20.34343
-0.90918821 -6.0881968 -27.24622
-14.008774 11.406428 -11.132749
3.7406664 11.633308 -11.786308
-11.121984 13.381658 -8.7364388
9.9547367 -12.104262 -5.2462201
-10.417284 -3.9600594 -5.2462196
-14.814954 2.2946396 -7.1012192
11.038355 -3.8553245 -5.2462196
15.320544 -5.9985003 -16.18092
-3.409025 -13.787491 -14.692378
-6.095674 -13.804901 -12.1695
-12.393944 5.8911877 -8.9920292
13.267614 2.0739455 -3.9962196
11.263755 -11.984522 -4.3883195
8.8486433 -14.432801 -11.486521
0.98280913 3.8614192 -0.084499188
12.912954 10.817199 -22.178865
16.301054 -2.8096931 -8.9624796
-14.095674 -2.6960535 -25.242624
15.904325 5.7164741 -23.567705
-15.595674 9.6073389 -11.388499
5.1585331 8.4293776 -27.99622
-12.498693 10.502679 -27.689278
0.13406177 -9.499299 -27.99622
-14.095674 -3.8735907 -20.333874
1.9348686 -11.956923 -4.3124795
-14.095674 -2.5020077 -19.254143
-5.398941 -12.682781 -18.628437
-0.39335167 -13.668801 -15.903575
-12.441314 12.566808 -10.161579
-2.504786 12.154037 -5.3635898
-14.081244 9.9452686 -22.282246
-7.3492732 -14.432801 -12.515591
-7.4216232 6.1262989 -28.24622
16.404324 3.8954241 -13.669409
1.8246557 1.8307785 -0.057659071
-15.037583 1.8211566 -27.784725
15.904325 -3.1387777 -22.71961
-11.592064 -4.57342 -7.1445103
-1.6867152 10.817199 -21.688719
-0.79826325 12.371849 -16.152615
5.9698501 -2.9027104 -5.2462196
15.094145 7.701787 -8.5703192
-14.595674 -3.463388 -15.742698
15.904325 -1.3472719 -18.554714
-13.071114 0.93811578 -6.2462196
-7.6440358 13.092278 -16.544289
9.2328091 -5.7248507 -27.24622
5.6090789 2.4182584 -27.24622
-0.54063326 -12.477012 -16.943201
-15.318084 9.5753183 -17.274313
8.2817717 -11.933691 -28.24604
2.2578514 -13.386271 -14.38768
-5.6102042 13.635128 -10.692119
9.0099831 -7.0061631 -28.24622
-9.7752533 -9.2962666 -5.2462201
-6.1699171 11.116958 -5.2462192
-4.2782378 10.817199 -24.115692
11.089294 -2.7317765 -5.2462196
-13.728714 4.840569 -7.1269798
9.0915766 -11.682801 -22.020947
-7.6612535 -10.546281 -27.24622
2.3533964 10.752568 -5.2462192
-15.121674 -9.5615892 -18.284748
-5.9047832 10.817199 -19.575899
13.095354 -1.4046112 -28.24622
5.6694269 1.8882624 -0.11213867
-13.545053 13.284368 -10.536448
11.940004 -7.0995555 -0.77783042
12.529325 -8.842103 -25.99622
7.841197 11.869959 -16.56316
16.397333 -3.9306643 -9.2270298
11.430675 12.733918 -9.2462187
12.763684 12.567199 -12.759008
-12.366063 -9.350296 -1.7837604
-14.965074 5.6346879 -27.89325
-3.2691209 -11.682801 -22.288242
14.229895 2.6785727 -5.2462196
-14.102263 -13.092681 -16.719971
14.904325 5.0401845 -21.746723
9.6178551 10.817199 -19.361214
-8.7558384 11.094028 -4.2462192
15.713944 -2.6949835 -7.3494196
15.904325 3.5856483 -26.492371
15.404325 4.8941598 -14.999087
-2.4469721 11.141718 -5.2462192
-3.6313939 -12.682801 -26.058958
-14.317883 -11.904951 -18.846449
0.59636182 -10.307802 -3.4159703
1.1627661 -14.432801 -14.984827
-6.9990649 -12.066982 -6.8606706
2.4453404 -0.20303699 -27.24622
-1.8367072 -14.016292 -12.07865
-3.6287351 8.0464392 -27.99622
-9.6921835 12.898767 -9.2462187
6.828969 -9.2169399 -0.65941089
15.004475 -3.8863785 -7.0741596
-8.1467743 -2.2849426 -0.21590053
10.879524 8.5970697 -25.245056
-12.840624 11.817189 -22.883591
14.904325 8.449501 -19.185915
-6.3315701 13.029488 -7.7688689
-13.803023 11.554218 -26.079668
16.404324 -5.7808123 -10.006989
7.8831062 -14.247882 -9.7636604
-14.121054 4.772409 -28.24622
2.4734795 -11.682801 -23.925337
4.4114571 -12.440372 -10.66923
-12.184323 8.2840099 -7.446219
1.4232947 11.817199 -25.533009
-8.3613224 -11.682801 -20.109802
1.6898646 -14.012301 -12.00255
-4.7828221 -12.074291 -17.535137
-6.83288 8.2550468 -5.2462192
2.4449494 11.184559 -17.570618
-9.0594244 -10.415227 -28.24622
-12.711583 13.567199 -12.803999
4.7587342 4.6192994 -27.24622
-8.0322227 11.444378 -4.2462192
-0.14845671 5.2994308 -27.99622
-9.921834 -13.429201 -17.321388
-10.433893 3.8428512 -0.37473851
-10.423914 5.6074162 -27.24622
3.2864165 11.817199 -24.683622
-10.622594 -12.149762 -4.2462201
16.404324 -11.221521 -11.92677
16.404324 10.974019 -13.518461
-5.6358261 -2.9253385 -5.2462196
-13.646133 -9.5665178 -28.24622
6.6349239 -5.5267186 -5.2462201
-2.5876541 11.817199 -24.984604
11.552375 4.2825775 -27.24622
-15.405173 2.8195081 -16.826233
14.904325 -5.6256566 -18.873581
-14.254724 -11.968111 -21.851973
-14.774863 10.582378 -20.869724
4.293674 13.567199 -15.133831
-10.074244 -12.094821 -17.504971
16.132494 -10.693892 -17.244677
6.460463 0.98138559 -27.24622
15.904325 3.0690084 -22.780386
4.2092819 11.833408 -15.604411
-14.362253 -11.072252 -5.8574395
-15.463214 -5.9030814 -9.2462196
13.892195 2.3418264 -28.24622
5.6123991 -6.6416726 -27.24622
14.253815 -11.174422 -5.2462201
16.057653 0.39787236 -17.629694
9.0432177 10.470918 -5.2462192
8.5131578 -11.682801 -23.578918
15.404325 -10.436801 -12.606199
-4.4307189 3.2366116 -27.24622
2.5193305 2.8021946 -27.24622
-13.196954 -13.083862 -10.683411
6.4504738 7.9816871 -0.30959857
-9.2330809 11.326529 -17.361925
8.837739 11.817199 -26.973932
13.866764 -11.682801 -23.778616
11.948484 -5.1808376 -27.24622
-2.9980371 12.129958 -5.2974296
-4.0321212 -12.237401 -28.17668
12.834914 -10.487591 -26.365387
-12.071374 11.332047 -4.9738898
-1.9484252 10.442198 -1.6518188
14.769634 11.301118 -8.7517691
-8.640789 10.442198 -1.8533397
-0.7907812 -5.3906655 -27.24622
5.061317 2.2867672 -0.11066999
13.384165 12.553458 -10.002728
7.9613042 11.187748 -4.5774283
12.363544 -12.631542 -7.2211003
-15.473783 0.58702314 -16.473286
-12.173163 2.1254857 -5.2462196
-11.570813 -3.2093415 -7.3873892
15.485444 7.1667838 -28.159012
-7.1585503 -10.352483 -3.9962201
16.404324 0.96580404 -14.614594
-3.5446711 -13.869641 -15.196517
14.795995 12.842079 -11.310769
16.404324 7.3345609 -11.21783
10.604835 -13.360362 -9.2235203
-11.352083 -11.676043 -6.2169099
-13.590693 13.238719 -11.275808
-14.095674 1.3346086 -24.913923
-14.759793 3.7112343 -6.9496498
-15.095674 3.2998164 -21.827951
8.8528223 12.567199 -15.503585
-1.5618211 -12.011132 -4.4614301
-14.079413 -10.815251 -20.651537
14.494294 10.618849 -22.138634
14.230564 -2.0931394 -4.4556904
5.3759661 11.817189 -20.411873
-14.095674 -0.93746448 -21.939674
0.80935353 10.817199 -18.743376
3.2666316 11.778459 -14.556014
9.5708237 -7.8708143 -28.24622
-1.6669012 -2.9476573 -5.2462196
1.9884446 -12.678182 -15.207063
3.0484066 -14.025022 -16.445599
11.490194 10.817199 -21.753323
-2.0337331 -11.892682 -5.2462201
13.002395 5.9050446 -5.2462192
6.3801041 12.688699 -12.530979
16.404324 -5.5102792 -14.414806
6.8389468 -2.7345486 -27.24622
14.904325 -8.6895123 -22.978846
15.577125 10.588769 -25.901741
-11.093874 -11.423331 -27.24622
-13.363764 -9.0492086 -5.2462201
5.8900838 7.3669 -28.24622
-11.201954 11.790548 -16.679884
6.9461322 6.3836908 -28.24622
-12.576783 -12.491852 -6.3744607
-0.79619819 13.213859 -13.546219
-7.2099552 10.769458 -6.1759295
-5.56003 12.352509 -12.915929
-9.9093933 6.22891 -28.24622
3.8721395 7.6138167 -27.24622
1.8624756 -14.161452 -8.500701
11.765244 -3.6815164 -27.24622
0.87405056 3.2344186 -27.24622
-5.033246 -1.9629513 -5.2462196
-0.73868316 -13.936432 -7.8824506
-4.945322 -0.60883802 -28.24622
2.6294246 6.7714853 -0.22563905
14.842534 -3.8896966 -27.24622
-14.095674 0.17414597 -25.930664
-6.4263668 -8.2016602 -27.24622
-4.706913 11.470327 -8.6764488
11.245395 -12.856491 -16.38541
11.244925 3.6511145 -0.50275022
0.68566173 -14.000401 -11.775451
-1.5431411 2.4935503 -0.071220286
-6.6620822 8.3462915 -28.24622
-15.595674 4.2035146 -10.59917
1.8389196 13.067199 -14.988551
-1.2643151 0.5328995 -27.24622
-5.6895599 -4.6575837 -27.24622
-6.095674 -14.035711 -11.258901
-0.41990256 12.709429 -14.396218
-2.441853 11.817199 -23.476793
10.261195 3.2693536 -27.24622
13.827635 10.513468 -4.1296992
15.904325 5.6196861 -20.710403
-5.0508451 -2.9925644 -28.24622
5.404325 -3.4907484 -28.142834
-4.595674 -8.8353567 -28.005302
-8.685091 12.368877 -8.9207087
-12.333794 -8.1866207 -28.24622
8.7680645 10.817199 -18.166222
15.178314 -11.083151 -16.707418
15.988874 -8.4903955 -8.1047897
15.904325 -6.6715856 -27.164732
15.904325 1.4586124 -22.7162
16.404324 2.9681458 -10.6157
-14.095674 -4.0543537 -23.335207
16.248564 -4.385643 -8.8182793
15.006815 -4.426662 -7.1390991
-10.873734 4.8933754 -5.2462196
-11.672934 -4.375886 -28.24622
-14.095674 2.8375404 -19.226709
-9.0487051 11.817199 -24.720112
0.22386478 -10.845752 -5.2462201
15.365274 -13.138401 -11.12263
14.369084 2.2452295 -5.2462196
12.156585 13.215498 -8.2799282
15.904325 9.9691391 -26.528889
-15.095674 -6.2306795 -21.925774
-9.753664 -10.418937 -3.9962201
-12.415693 -12.655581 -16.680727
-15.095674 3.1158214 -23.557358
3.3052754 13.035038 -9.8719282
8.1540432 -8.341773 -28.24622
-14.888913 -1.8052372 -7.30441
-15.592653 -9.5170546 -12.90358
-9.142993 -13.432801 -11.189361
12.215284 -9.5398474 -26.292217
14.904325 7.4588022 -26.04987
-8.952363 10.442198 -3.6487899
15.904325 1.9089742 -20.157305
-11.720943 7.1185579 -27.441887
13.909565 13.536077 -9.9093084
14.953574 5.6872473 -18.068859
1.184755 4.9836073 -5.2462196
-12.251364 -13.432801 -12.525881
-5.3989749 -4.1293736 -0.14703006
15.235624 -11.805441 -13.431699
-13.776064 7.2508998 -7.2570796
6.0866342 10.817199 -19.250313
-14.394874 -8.6026831 -8.9572496
15.045324 4.2282524 -17.596844
5.7238688 -14.408411 -13.037641
-15.095674 3.2109296 -25.086145
0.62803811 13.930219 -11.396129
3.8846455 -11.682801 -22.94035
-15.095674 -9.0323553 -26.742832
-12.491283 8.6793671 -7.2118983
-14.396204 -2.622174 -16.776096
15.134014 3.0967438 -8.6798697
-14.595674 6.0825787 -14.359718
-14.105144 2.4219766 -5.1510105
10.861605 2.4737153 -0.39933956
7.3944092 2.7789214 -0.18243968
8.9438162 0.99264556 -25.868958
16.069735 -3.427819 -17.567532
-12.945833 -5.1263595 -3.9962199
-9.0206203 1.0016516 -26.515329
-0.17754866 -8.9091511 -27.24622
8.8042698 1.5934447 -5.2462196
6.5951028 13.567199 -15.749564
-13.117984 13.235798 -8.3357086
-2.2675011 -12.198101 -17.353153
9.5479155 6.9750767 -28.24622
-2.491436 10.368519 -28.24622
7.2275338 5.7961774 -5.2462192
-5.4434528 2.3100364 -27.24622
11.319505 -12.682801 -26.154436
5.0869012 11.765308 -14.305049
15.897285 -9.4610853 -27.531597
5.7247219 10.438437 -5.2462192
-13.600134 -12.579021 -19.118088
-7.0221353 11.349627 -4.2462192
-13.409114 6.3599534 -4.4205184
-15.595674 -0.89867395 -10.05375
14.215045 -10.738532 -5.2462201
-13.220943 -7.6372199 -5.2462201
-10.342903 -12.117502 -4.2462201
13.312414 -0.12842895 -5.2462196
15.904325 7.1256251 -22.170343
-9.0918999 8.9614763 -28.24622
-14.595674 6.3114538 -13.999586
-5.5441933 -3.0010386 -5.2462196
0.57578444 11.504868 -9.3355989
8.2698555 -12.639991 -27.711443
11.451204 10.817199 -23.181812
6.4695978 -5.1115088 -27.24622
-10.029453 -12.682801 -24.986456
2.7920654 13.567199 -15.349146
-13.804403 -4.737051 -7.33494
-4.4645963 -13.428042 -6.485661
-12.449903 -11.682801 -26.329704
-5.06109 0.019744692 -27.24622
12.779325 -7.8126297 -2.317589
14.904325 -0.96463907 -24.331402
-12.584993 -13.174912 -8.9738903
14.904325 2.5609703 -19.455406
14.904325 -10.538991 -20.922901
-4.645802 -9.9489412 -28.24622
-11.451974 -8.7229748 -0.81047094
-15.595674 -5.0467572 -11.73549
14.904325 3.6820703 -19.796408
-13.985104 10.144648 -7.8313994
-2.229342 11.817199 -23.453663
12.734844 -11.682801 -19.598717
15.400445 -13.103231 -11.40538
1.5903146 11.791139 -14.79786
6.5281291 12.082218 -9.7484484
-0.48804116 -11.208891 -28.24622
-1.4645661 -12.270232 -7.4228797
-5.7825522 -1.5830153 -5.2462196
12.973205 0.95625669 -28.24622
12.677235 -2.5120945 -28.24622
10.082331 2.9145164 -5.2462196
-6.5746341 13.488668 -15.96164
15.904325 2.0279741 -19.063803
5.1804609 10.817199 -24.790678
1.7327296 -13.932801 -14.619498
-4.2839942 -8.7491093 -27.24622
-5.0812383 -11.682801 -21.034906
15.066625 3.6936271 -17.48724
-10.698323 -8.8901091 -28.24622
-3.6647 -12.478392 -11.39478
2.7507296 -14.432801 -13.830143
15.467424 -6.6018872 -9.7462196
6.5176358 -12.682792 -22.618816
6.9624958 13.567199 -14.674439
7.992178 1.4968387 -27.24622
-3.7317572 1.8914136 -5.2462196
-14.645754 -5.9800692 -6.6363301
-9.6265039 11.542768 -4.2090983
5.7395048 -13.330101 -13.315866
1.1602541 3.4240112 -0.078658909
0.4927358 11.592889 -11.015079
10.224775 -11.682801 -20.700775
-9.6434135 -12.682792 -20.225475
6.5681 10.269388 -1.1352687
-14.095674 3.4075754 -23.241091
-11.598373 -12.749192 -4.6205392
-14.095674 -2.2141457 -22.40041
10.904325 8.8268681 -25.458605
-0.26186436 -14.432801 -14.754004
-3.9797702 13.572328 -9.6893587
-12.662844 -2.0008845 -27.24622
0.44404048 4.2173934 -5.2462196
-11.957793 -14.432801 -15.730273
0.59729737 -12.725471 -16.109255
-14.095674 -1.7306305 -25.147655
4.45999 7.4871907 -27.99622
7.4255352 -4.2190676 -27.24622
11.350325 8.7046995 -28.24622
-8.0305586 -14.432801 -13.601187
-15.095674 3.2410295 -24.739611
12.939944 7.1597242 -27.24622
7.9375072 -9.3146257 -5.2462201
4.6187229 -1.5687044 -27.99622
-0.074169986 -11.682801 -24.388424
12.822145 -7.9078197 -26.646948
14.904325 4.8945055 -20.807516
-14.203203 -1.6129403 -5.4204292
-0.94802326 11.817199 -25.018572
0.16600138 -0.45182356 -27.99622
8.0114822 -11.682801 -21.26997
15.904325 8.0991354 -21.296892
12.871144 11.317307 -4.9333987
-8.0227499 0.94825655 -26.197842
9.8358984 2.6016514 -27.24622
-3.7227931 11.816149 -15.27512
1.6105846 -13.439371 -15.659469
0.18383858 -13.792401 -16.787529
5.7596898 7.4241738 -28.24622
4.6599789 -0.46305391 -27.24622
-5.8613811 -9.4343443 -5.2462201
13.431415 -12.682801 -24.810522
-12.529464 -2.0149305 -6.4015388
-12.822313 -7.2984219 -5.2462201
-14.171794 3.8869469 -17.930582
-9.2395639 13.567199 -12.673849
3.3584754 -12.899302 -18.100269
5.476788 -12.570871 -13.15931
-10.247044 11.817189 -19.251293
-9.3691158 7.6993961 -28.24622
7.2364588 -11.682801 -19.970903
-2.0064089 -13.864042 -7.6835599
7.9177918 -11.692112 -6.2329602
-14.005604 2.7170126 -4.8775291
15.988714 -8.1789036 -9.7462196
7.2090569 1.2238314 -0.15217966
-15.095674 2.8128543 -21.281073
-13.266503 -6.8905549 -5.2462201
4.6807241 10.442198 -2.3197894
5.9715118 -0.15272225 -5.2462196
-14.250573 12.578848 -10.171819
6.3576379 12.583239 -14.814974
-2.3682401 11.817199 -20.844824
-9.0888691 4.7907453 -0.26658991
10.010433 -6.5620155 -5.2462201
-15.595674 0.29674318 -15.319408
-9.2473726 -11.070071 -28.24622
16.279545 6.3717718 -8.9033794
4.2767253 9.9947386 -28.24622
-15.095674 -10.480231 -23.432756
-3.3594501 7.6554947 -27.99622
-2.392786 6.3707085 -5.2462192
-6.095674 -13.940622 -10.855391
2.5924666 -12.504821 -11.899
-9.9759035 9.7418575 -5.2462192
-15.509833 -4.0737419 -16.287807
-14.095674 -10.502691 -22.083811
6.944397 12.567199 -11.094668
16.268715 -3.8009703 -9.2462196
-12.544893 12.656518 -9.7462187
-14.882894 11.946528 -14.781651
-13.707423 9.6156082 -5.240129
-10.177484 12.567199 -13.324381
-12.263514 -9.5607967 -3.6024499
-12.387954 9.4223204 -2.5772796
10.516934 -8.8349066 -27.24622
-12.887123 -12.682792 -19.569761
-0.95938319 -8.7093573 -0.47406998
10.323426 -10.307812 -1.4547105
10.844114 -12.682792 -23.177273
6.3768392 -12.877731 -11.046161
-14.595674 -8.3757105 -14.268606
-10.365873 11.817199 -23.836704
-3.183851 6.565794 -27.99622
-4.4745979 -11.133582 -5.6744409
14.598015 11.567879 -26.169504
2.0094774 -13.103703 -5.5945592
0.57769263 -3.9870496 -0.083210163
3.1060214 -13.887061 -15.074021
13.791425 -13.594092 -6.9418893
-3.7161922 -12.326211 -28.117628
8.5187254 -14.274532 -8.8113804
4.4291019 13.414948 -8.827919
14.904325 6.135632 -25.783764
-13.136244 1.9463745 -28.24622
-13.079603 11.123618 -3.9962192
-2.0020261 10.442198 -2.1178889
3.2048185 -4.1410065 -27.24622
-3.7794042 -12.412723 -4.2462201
15.404325 -7.9020681 -15.310488
-15.095674 -0.35542753 -19.093996
-13.500363 -1.6569853 -4.6712189
-4.8898878 -12.492082 -27.983225
-12.382544 3.6099117 -27.24622
4.8508401 -13.413221 -14.59235
2.9994705 -12.682792 -22.494051
14.270985 -9.6430511 -24.99622
5.5516772 -9.9439392 -5.2462201
-8.1093149 -1.9541563 -5.2462196
1.1608052 -14.832582 -13.01508
11.273285 -11.025342 -3.9962201
-12.253644 11.269048 -4.8008094
15.404325 7.8084431 -11.647719
-8.2358904 10.817199 -26.651741
-13.051503 13.567198 -10.081779
-0.26467919 -10.714212 -5.2462201
5.3271298 11.817189 -18.801672
-12.514904 -11.403032 -6.4528909
2.7455864 11.817199 -21.885725
1.7458986 -11.682801 -20.326971
-0.96728116 13.567199 -13.824734
-2.871244 10.817199 -19.23193
-13.742904 6.237473 -10.885779
15.310294 7.2189889 -6.2404094
7.6023202 -4.3453703 -28.24622
-2.2906511 12.131508 -5.3016982
-1.1660742 -11.682801 -25.845911
-12.348224 11.817199 -25.443367
0.83463925 2.2113416 -5.2462196
-2.508786 11.817199 -20.800749
15.404325 -2.4007742 -11.859759
11.746975 -12.854822 -7.8345599
6.4373169 -12.137053 -6.9883695
-14.252443 0.47783411 -8.5659399
5.519876 7.3772044 -27.24622
-12.429523 -14.432801 -11.026621
-8.9529505 -11.682801 -24.109806
-14.095674 1.9762843 -19.323004
14.904325 -3.1963027 -22.689678
3.5336235 11.817189 -18.973284
-12.680794 0.92708766 -27.24622
-8.5411987 11.332599 -28.192837
-10.860273 7.8559384 -26.646219
-4.4010782 -9.1199942 -5.2462201
-8.6798239 -11.682801 -24.842167
-13.499523 5.2158222 -4.6689091
3.6433156 -12.682792 -23.742315
6.561708 -0.67931718 -27.24622
14.904325 5.2956624 -23.925198
-6.2211542 8.6215963 -5.2462192
9.0584288 11.358297 -4.2462192
-10.766403 8.6509295 -25.99622
14.348015 -13.437482 -6.609961
9.5986242 11.998649 -16.374004
-9.8920832 6.7617364 -27.24622
6.492764 9.0029583 -28.24622
9.1512041 6.0484991 -0.287029
-3.6578059 -12.576741 -13.27143
15.904325 1.8102415 -24.307854
-13.493793 6.9021196 -6.7821193
-11.971844 11.704517 -8.3023891
-14.120164 6.8072729 -28.24622
14.904325 -9.142643 -20.315588
-15.095674 -10.741151 -19.823881
-0.67468423 10.817199 -20.835976
16.404324 4.5901489 -14.53788
11.670115 -0.85396361 -27.24622
-6.6420932 6.2971044 -5.2462192
-14.496393 7.8523855 -9.1699696
7.3852081 -13.387451 -13.912368
11.376245 7.5120502 -27.24622
11.662334 -11.488603 -4.2462201
3.6560404 11.072537 -6.6438498
-14.459703 4.7543564 -16.449417
11.397525 5.2295156 -5.2462196
-14.095674 -2.1569695 -21.207199
8.2758884 0.55119395 -27.14431
16.404324 -4.1059399 -14.914125
-11.929024 13.567199 -12.108899
12.715375 -11.682801 -21.79752
-13.821013 10.223858 -7.3805795
-14.095674 -8.7194977 -25.717934
14.172435 8.9155273 -5.2836299
1.5943146 7.1063943 -0.23375861
2.2054944 -11.891682 -28.24622
-1.4926552 -13.326231 -13.201691
16.223404 3.605901 -16.776997
-4.2057419 4.6687036 -5.2462196
4.662251 10.817199 -25.741888
14.904325 -3.8363006 -21.490788
15.858885 -7.761765 -9.2462196
-13.847713 10.005548 -24.99622
-7.9828582 6.6963391 -27.24622
-12.885743 12.454068 -9.7654886
-7.1128912 -14.432801 -13.199361
-5.4609241 -11.682801 -20.889168
-14.360623 2.6557221 -16.959167
4.5452352 10.666999 -27.24622
-10.257064 11.442279 -20.961201
-13.911573 10.390738 -20.348007
-15.595674 -10.643162 -10.231359
2.9792366 9.0741215 -0.55013996
15.904325 -5.6952748 -25.357323
15.404325 3.0887778 -11.179049
-6.636909 -2.2756567 -0.15840922
13.622424 -13.352071 -14.301223
-15.095674 -6.5278149 -21.843897
-1.5526842 -9.16959 -0.63493007
-7.8672156 3.4915166 -27.24622
-8.2354918 -10.298986 -1.2405496
6.357172 -13.172391 -14.108733
-11.777464 0.2343224 -8.1296492
-1.0162481 -14.435462 -9.253521
-4.9235082 -8.7235632 -0.48579064
-14.890293 11.751788 -8.529129
15.404325 -1.2347687 -12.66643
-6.377264 -11.682801 -24.798466
1.2034339 -12.682801 -25.250877
3.3457885 5.7330256 -0.18510984
11.876775 -13.259862 -6.0235906
8.5407686 -11.682801 -18.505804
14.477864 -11.494481 -20.172747
-9.9195232 2.5045824 -27.24622
-5.7842779 -12.682792 -23.617817
-15.178683 -5.2786384 -8.1005592
14.511994 9.5991182 -5.2462192
2.6471984 13.997979 -12.689129
3.7323275 6.0239844 -27.24622
2.3243454 12.674599 -14.671906
16.178413 8.3270664 -17.008427
-0.040651109 12.574779 -16.035458
-6.834785 0.76771164 -27.24622
7.7730522 -8.8668871 -5.2462201
3.0705094 9.9331579 -0.93263012
-8.4365416 12.770688 -9.2462187
14.109685 0.82142168 -28.24622
15.404325 -5.2082262 -10.75319
-10.450534 13.567199 -11.111299
15.257235 -0.73190588 -9.0184097
-6.4902272 4.4739494 -0.17629986
4.495564 5.3223591 -0.17703032
14.904325 5.3245754 -18.609003
-13.212004 11.817189 -18.697752
11.138174 -13.797022 -7.4994197
12.458255 12.567199 -15.218965
-10.016494 0.032357186 -26.632275
0.70545787 10.392548 -5.7990088
-6.795927 9.171916 -27.24622
10.374071 -10.672472 -3.9962201
-6.8475871 10.147178 -5.5536494
-8.7875118 -12.682801 -26.267193
14.562425 -12.739821 -17.945408
-5.3288922 -10.981631 -24.99622
-12.862874 -7.0963159 -3.9962199
-8.6211109 -14.389032 -9.8609505
-11.581694 12.346339 -15.862945
-12.929193 0.14617208 -27.24622
15.904325 1.6473832 -20.376865
-7.7982707 -8.6444712 -27.24622
10.32112 7.9102502 -25.439243
14.924954 11.143699 -27.80069
-14.009503 11.347739 -20.158955
-6.3640409 7.0103989 -28.24622
-5.9871659 -11.770172 -6.352921
-3.3774781 11.274077 -4.8146186
-7.441874 10.068349 -27.24622
-5.4036698 10.712838 -5.2462192
15.904325 -9.659379 -24.190096
-0.65067726 11.488667 -9.0263987
5.122818 -12.583851 -16.786148
-12.659043 12.169268 -5.4054198
-1.7796942 -4.8671522 -27.99622
12.963204 13.567199 -14.773662
14.904325 -1.5909708 -18.360996
-11.736214 -7.417377 -5.4968705
-5.9384332 -7.7418809 -0.2987102
7.2927809 -12.682792 -22.4438
14.904325 -7.5442386 -20.786938
-8.0917807 -11.682801 -26.220505
10.251156 13.399938 -8.7866888
-2.264394 -13.414921 -14.594019
-10.587244 10.817199 -24.369751
-2.1973891 -7.3984518 -0.25460085
-12.500174 2.3547885 -6.70261
16.404324 10.048468 -10.316239
0.028488604 7.8452744 -0.2723099
14.352764 11.493567 -7.8927693
-10.499634 -7.9148207 -5.2462201
-0.50631946 -14.432801 -14.312092
4.8969169 11.390078 -5.1333289
-5.2848148 -2.8209624 -28.24622
-3.9154191 -7.1762528 -5.2462201
-9.0174751 -9.2351389 -27.24622
-11.321693 -1.0760467 -5.2462196
-7.6138539 -5.7810168 -0.26420045
-15.493314 -12.161061 -15.095161
-3.8037958 1.3956107 -27.24622
-1.5422151 3.5763538 -5.2462196
4.4522538 -14.800181 -12.593511
12.341755 10.358938 -5.2462192
-1.2654432 -8.1121521 -27.99622
0.37291127 12.756119 -15.467675
-7.1219583 13.555988 -15.839067
-8.1756449 -11.237052 -5.7779202
-0.83403116 -12.916772 -5.0809693
16.275064 -2.7723291 -8.8910694
15.404325 -9.3064852 -14.306171
0.54867905 10.421728 -5.8281989
2.0333304 -13.927052 -14.474762
-11.561844 -13.403111 -15.581944
-14.755843 -11.466991 -22.622911
-5.5876822 13.117639 -11.850409
3.0222194 -12.339122 -8.7373705
15.404325 -1.549178 -12.397699
11.951365 -8.9043188 -25.99622
-14.095674 8.5897293 -23.873295
10.654724 -12.028381 -28.226997
-8.6256456 -10.542831 -27.24622
12.075435 -9.1478462 -5.2462201
1.4812596 -5.2327046 -0.14350913
-14.595674 -7.3948803 -14.762226
16.381914 11.108958 -9.9530487
-7.6725097 -12.907453 -5.0553498
-5.8251462 -4.2235227 -5.2462196
-8.630187 12.491699 -17.427073
-12.695454 2.0438144 -28.24622
12.238235 -9.3910532 -26.523378
-13.690324 5.1882315 -4.2647095
-10.956163 7.6438293 -28.172626
-9.7285032 1.1641186 -27.24622
14.904325 2.5909522 -22.302927
-3.2096951 -14.110792 -8.3615208
15.404325 3.2976339 -12.55592
-14.595674 5.2865348 -14.900016
0.20387357 -4.5426006 -5.2462196
-13.286553 1.6616117 -5.2462196
5.5586739 -12.491231 -11.639741
-15.373323 8.7808867 -16.990137
12.779325 -6.9934235 -3.6890299
-6.7649951 2.6259644 -28.24622
15.904325 -8.0974731 -18.908512
16.066584 3.4815719 -8.3182793
-12.238323 -11.014362 -5.2462201
-9.3804922 -3.3726785 -5.2462196
11.602715 -12.988691 -16.191084
-11.731494 -5.6809754 -5.5508199
-15.595674 0.46941563 -13.555416
15.404325 -6.1077323 -13.356754
-7.7475486 11.205547 -4.6263385
0.76736277 -12.682801 -25.618195
10.032215 -11.620602 -25.99622
-1.5907161 -11.682801 -21.643566
-8.0437841 7.9557433 -0.32514918
-1.8138462 11.078178 -17.726978
-7.8068852 10.853269 -18.057564
0.54309267 13.567199 -15.090014
10.308166 11.817199 -26.386087
12.779325 -6.4670725 -3.0368807
2.8623245 13.567199 -14.92104
8.2957306 -4.9998579 -27.24622
7.9967418 11.441598 -4.2462192
-3.393131 10.631848 -28.24622
0.62775052 2.4145725 -27.24622
-3.9098639 -11.858182 -5.2462201
4.116528 -1.0230639 -5.2462196
-10.069994 11.247908 -4.7427096
0.98967129 3.6963737 -27.99622
-11.995914 -14.432801 -14.986053
15.876265 -4.0051093 -27.637266
9.7931147 11.500329 -17.106468
7.306673 -1.4622306 -0.16164976
-4.7335782 -10.042852 -1.0757604
-6.2537003 -13.038592 -5.4156709
14.779485 -3.7054405 -4.7820206
15.966084 9.2038221 -18.10079
11.702075 2.3587706 -28.24622
15.601564 -0.24964538 -7.040659
-13.544384 3.1942995 -6.6205387
10.426624 -13.140903 -8.6205606
14.904325 -1.0426482 -23.358149
3.5851774 -11.019022 -5.5598798
-15.095674 -3.2933958 -23.234426
15.904325 1.4869217 -27.469301
-15.435814 -3.3488822 -8.8070192
-14.244194 3.1132107 -5.5330601
4.4667912 -10.307802 -3.6698594
16.005754 11.615108 -9.1803684
-13.661324 -1.9493474 -5.2462196
11.255014 -12.682801 -25.921391
-14.095674 -6.9897585 -24.321358
9.7453623 -0.97298259 -25.74622
3.6648564 -14.026792 -12.278931
-13.921574 -5.9958081 -7.7064404
5.4347959 10.817199 -20.624027
12.669624 -13.779192 -7.4504399
-3.8574848 -5.5780873 -27.99622
-10.449654 -12.682792 -24.610207
6.0027652 2.7906713 -0.12919033
-12.470674 2.9701476 -3.5577695
-12.871694 -12.947412 -16.177225
-15.095674 6.2638593 -23.090288
3.0087404 12.392509 -15.8501
-5.571476 12.648869 -12.418839
-15.042904 -0.64668828 -9.2462196
4.8182859 12.927518 -7.4886994
8.4584732 -13.025502 -9.0360603
-8.3525696 4.0874104 -0.23212034
14.904325 3.9951537 -25.998865
-11.975953 -14.037742 -16.42691
-3.3155 -10.141213 -27.24622
15.328025 -10.050918 -16.142471
-5.3149571 -0.2251481 -27.24622
12.733065 12.139509 -16.166962
-1.4790611 -13.800311 -15.827651
1.2677624 -11.682801 -26.273586
16.404324 2.0150597 -11.8742
-9.2431278 8.7941818 -28.24622
-7.9404511 0.01231542 -27.903767
13.736685 13.567199 -15.728009
7.6238799 11.762949 -27.768972
2.8684385 -0.2058202 -27.24622
0.60911554 6.0617423 -27.24622
12.702435 11.817189 -20.056894
3.1055346 -13.196871 -15.914514
8.1635714 13.567199 -13.720299
-7.2955608 11.329168 -28.193527
-7.3729463 11.924898 -8.5853186
15.014814 -1.1911311 -7.5969496
10.089471 -14.432801 -15.553242
-0.64530724 -1.6572914 -27.99622
0.32525128 -12.368591 -17.102552
10.008591 -10.618141 -28.24622
16.404324 -2.0297251 -11.70185
-14.765264 -11.490802 -6.9646897
5.2212749 12.773418 -15.92077
11.417295 -11.682801 -23.848886
14.622355 -12.795922 -5.0916104
5.9886069 -12.682792 -19.487547
-1.2363402 -4.6552777 -27.24622
11.860894 -1.0146774 -0.73033911
8.3318357 10.279119 -27.24622
12.779325 -6.1550136 -2.8377402
0.66324973 -11.682801 -23.674234
7.630229 13.242918 -8.3552685
-14.261944 8.835084 -17.466833
7.8541579 11.817189 -20.306101
-8.9026823 11.598598 -28.024948
2.5377054 10.817199 -22.251169
15.404325 -6.3872204 -13.700686
5.26437 10.630638 -5.2462192
8.0099049 -1.9178973 -5.2462196
5.8778462 12.478369 -13.056469
-7.6894851 10.716949 -28.24622
-13.160064 11.109538 -4.2462192
15.904325 -0.24448067 -18.86282
-12.500164 2.2480025 -6.7031097
-14.095674 -1.190457 -20.669682
-15.095674 7.7072406 -20.953012
10.181271 -12.682792 -19.498188
-13.503083 -7.7978129 -27.24622
15.904325 -2.4072957 -23.027811
-15.593184 -8.939868 -12.029619
4.6750622 11.282477 -4.8376994
-11.040744 12.567199 -13.836915
16.404324 7.5458779 -11.35049
16.404324 10.223248 -15.40666
-1.0823592 10.817199 -22.594101
-8.6073999 -4.4689932 -28.24622
12.779325 4.1410551 -3.6452386
-4.842267 7.0088453 -5.2462192
1.7326406 13.274788 -9.570879
15.404325 4.5099487 -11.177159
7.9301038 -0.68045688 -25.373255
-15.095674 -4.4794579 -24.745283
-8.1963663 -1.2108661 -0.20788962
-4.6768842 -11.965662 -6.6915193
-13.356943 -0.01051139 -4.2771797
1.6562777 -12.906641 -18.089485
8.9557438 10.817199 -19.784494
-5.437809 -12.790551 -16.482327
6.4867282 0.86650169 -27.24622
10.950615 12.324598 -17.672689
-8.4958706 11.708668 -4.2928195
-6.359848 -10.362903 -26.903166
-14.046563 -10.976401 -17.831726
-15.095674 -2.2465837 -19.823328
-11.878513 -11.266122 -5.2462201
-15.595674 -3.7264819 -15.149518
-5.0227122 -11.369712 -5.9105802
15.109915 -11.979542 -10.90027
14.855824 10.898238 -4.9917388
-11.356813 3.9047365 -0.65060979
11.739124 -12.122132 -4.7663903
11.191244 -7.7275295 -5.2462201
13.832205 13.567198 -10.163649
-9.3813639 -12.682801 -25.583506
15.755585 -8.6948957 -7.46382
-14.595674 -0.13902512 -10.87828
-3.0293751 12.584799 -14.396218
9.8875141 2.7629013 -0.26359928
15.904325 -8.9651604 -26.387207
-15.595674 -7.2528281 -14.949811
6.379406 -8.6661491 -5.2462201
-8.2412109 -12.961442 -5.2036901
-1.3193681 10.442198 -2.3835483
15.884125 -8.4620543 -7.8169904
-12.440794 13.333048 -8.6029091
-10.036424 8.3363838 -28.24622
16.261934 -2.5412071 -16.578751
-0.65878719 -11.371653 -4.1533208
-5.8217969 11.122059 -28.235188
-0.57941514 -11.682801 -19.899609
-15.595674 -3.5910242 -10.8152
-1.8909782 -14.432801 -14.612934
-0.0017800926 -12.682801 -25.158916
-2.7066631 -13.871952 -7.7052798
-10.167013 12.358888 -5.9264083
11.370575 -8.1412172 -28.24622
-13.887114 10.415819 -19.178705
14.904325 4.4463973 -19.776001
-14.095674 1.1080954 -22.699568
10.982855 9.7930689 -26.577623
15.404325 -0.088302791 -11.52921
13.474654 10.541999 -28.24622
-11.398933 -0.87153494 -28.24622
9.7213049 11.817199 -26.130182
1.6170816 -13.893582 -9.7372904
1.2152032 10.817199 -20.72946
-5.8617239 10.442198 -3.723249
-12.367253 -13.432801 -13.657127
-11.072783 11.229299 -17.504841
15.567895 12.070178 -10.303268
-3.3198671 11.739569 -13.813846
12.623835 -11.436262 -5.2462201
1.8231866 11.981888 -4.8906283
16.404324 -7.277678 -11.06468
0.01388049 -11.535462 -4.2462201
3.0995674 1.3595724 -0.06857866
10.899204 -0.32810017 -25.364683
15.454595 0.88778275 -6.6368389
8.353014 -14.432801 -13.863514
-15.133723 2.8102951 -18.222723
-5.5315552 11.267169 -17.449181
-10.604974 11.817189 -19.423582
16.404324 -7.7726102 -13.377492
14.904325 1.7119646 -24.068027
-14.595674 -5.5886273 -11.504439
0.61059445 -9.6055527 -5.2462201
9.9888725 -6.2055159 -5.2462201
12.259495 6.3571291 -5.2462192
-8.2962799 -11.682801 -20.330515
9.3594532 -13.163211 -17.712349
-13.110563 -12.638811 -27.717365
15.828944 -0.53190231 -7.6653795
8.0162077 -9.1406755 -27.24622
12.947795 -4.8301702 -28.24622
-8.5143948 9.5671978 -5.2462192
-10.807433 -11.682801 -18.428583
6.3559561 -12.561391 -12.569301
4.9384289 11.817199 -21.794508
-15.095674 -1.5464103 -26.245901
-14.595674 -4.7025514 -15.372442
14.638835 10.488519 -25.296862
-15.595674 1.8868328 -11.312429
-0.36523318 13.005909 -14.777462
-7.4892411 12.757678 -7.0220885
14.904325 -4.8509698 -20.340723
15.648285 9.3414593 -9.7462196
-7.8309131 11.505648 -7.1110396
-13.532074 -13.399832 -6.4811292
10.102138 3.2218754 -27.24622
-1.5849152 -1.258306 -0.050088938
13.089814 12.541577 -6.42835
1.1158894 -0.68207103 -27.99622
11.228874 -14.432802 -10.783621
-9.3041668 12.456657 -9.1188488
1.5270666 -13.387991 -14.420515
-4.3055191 -10.905811 -27.24622
10.470095 -4.2828736 -5.2462196
-6.3580379 12.567199 -11.800339
-1.2390542 -11.591763 -5.2462201
15.904325 -10.392049 -25.123116
-12.205303 4.9781594 -27.24622
-8.48841 -12.137082 -4.8074594
-13.967254 -12.890322 -6.0406899
-8.0551252 12.220098 -8.9161291
-1.3754722 -13.995301 -13.546221
16.266304 1.7146008 -9.2462196
-5.3484979 -5.6232662 -28.24622
