ply
format ascii 1.0
comment VCGLIB generated
element vertex 1816
property float x
property float y
property float z
element face 0
property list uchar int vertex_indices
end_header
4.608539 18.36943 11.72951 
2.489626 16.06217 11.79212 
4.458035 -4 6.139722 
-14.5 2.119238 -1.84866 
15.50774 13.5 -0.500242 
-1.835135 8.526723 -13.38228 
-14.86827 6.818588 1.854031 
6.566687 2.925352 11.25 
-13.51266 -3.660228 -12.25 
15.30573 8.156986 -12.36082 
-15 9.859516 6.378403 
-9.840814 -5 -2.549856 
-5.164764 -1.462386 11.25 
6.799534 5.158005 -11.26522 
8.803697 -4 -2.311537 
14.8687 6.820809 8.369155 
0.2162236 1.298913 -12.25 
-14.5 -1.246123 6.297478 
16 7.832199 -6.314377 
-5.653735 -5 -5.328555 
2.069405 9.217246 -12.90345 
-3.564605 13.84006 11.94137 
0.7078958 -4 -3.177263 
-9.772209 18 9.696093 
16 8.820822 0.5541027 
-15.20189 16.19278 7.993071 
15.96953 14.08371 7.40646 
11.7793 18 -4.419402 
-12.70979 18 1.530005 
-6.39477 -5 1.638272 
-13.10595 -4.093428 -12.25 
-15.7607 14.65748 -6.447292 
-13.62591 -5 -3.489433 
8.724063 22.35283 -10.28591 
-14.07395 18.10995 7.766606 
-3.753567 18 -4.094219 
-9.435537 18 0.6693773 
-11.42098 5.170582 12.48326 
-2.990462 22.8741 7.866897 
10.27657 0.8544763 -12.24999 
4.632265 17.3624 10.91015 
9.755387 15.02669 -13.62632 
10.50257 2.036893 11.25 
-15.69907 14 10.49816 
13.66602 7.728111 -12.58631 
7.87221 -5 -1.181841 
-1.450071 5.961599 -11.81193 
2.994761 -4.75 -3.453513 
0.1542988 -4.75 -2.991015 
-7.439869 12.83286 -13 
-14.68582 17.61067 3.029509 
1.280269 18.28946 -11.75862 
6.469534 18 2.946096 
14.70632 10.768 -11.54601 
-12.81395 14.47912 -6.25097 
2.480771 18 -9.544689 
15.25783 13.5 -5.99881 
10.57023 22.62447 8.357649 
-15.5439 5.053566 4.152318 
15 10.73731 -1.244179 
1.819086 -4.75 2.76255 
7.484448 -4 1.109518 
-10.44809 9.053721 14 
2.034592 10.19743 14.05042 
0.8998401 10.16498 -13.43122 
10.88738 4.58028 -12.24999 
-15.98683 7.332248 0.4827885 
7.045665 -5 -4.904294 
-6.705939 -4 3.751663 
15.42986 15.56645 -9.809436 
3.868104 11.68059 -13.956 
-15 11.01917 4.0179 
1.981324 10.2072 -14.23683 
11.62891 -2.75 8.560376 
0.07526359 19.9154 -10.875 
-5.187626 19.39759 9.875 
15.0518 14 2.653779 
2.776422 11.65279 -13.60251 
-15.99374 7.367777 4.792477 
-15.5 1.900642 10.14083 
14.5 3.044122 -4.55468 
6.014643 12.41373 -14.1237 
-7.198624 4.489284 12.24998 
-1.513763 19 11.30689 
-0.6023254 -4.75 6.360856 
6.637933 6.465085 -13.36395 
-5.75 -2.169862 8.956062 
15.6637 12.35356 -12.00284 
-1.262904 -0.653851 12.24999 
-11.14677 21.67848 -10.87503 
-13.14913 18 8.976131 
-2.529281 14.44855 -13.83674 
-1.943794 7.612542 -13.03109 
-0.8301599 -4 -9.846647 
-0.4066892 11.60618 -13.57025 
-7.575622 -4 -7.821081 
3.470778 -4 -1.870642 
9.532837 3.677053 -12.24999 
1.316994 7.977301 12.24863 
-9.153746 14.55515 -13.79794 
8.617252 9.075962 -13 
-9.117685 -3.949842 -1.490248 
2.8598 9.256399 12.91128 
-10.78763 9.554633 -14 
12.375 20.94319 -6.669833 
-9.456795 22.97384 4.402162 
15.24205 16.08245 8.047524 
-3.376261 -0.6728812 -12.25 
-14.87874 17.08062 -6.345964 
-11.14992 -5 9.892441 
15.5 -0.03868222 -5.523137 
-6.920902 13.4438 13 
-13.98647 16.52193 9.637999 
12.08789 -4.975102 11.6238 
-14.5 -1.148013 4.537882 
1.885712 12.8497 -13.49533 
15.5 4.663855 7.685574 
14.5 4.816972 2.447976 
-2.482166 -4 9.087431 
10.79549 18 10.23051 
-15.5 2.284392 -0.2507975 
13.46979 19.04589 1.495939 
15 12.72449 10.75293 
11.98199 9.409847 14 
-16 10.5999 -7.074762 
-2.865292 23.17857 1.010203 
9.494088 -5 7.90089 
12.51362 -1.75 10.86636 
-8.896888 0.6090554 11.25 
-2.261547 -4.75 -5.34686 
15.5 -4.122692 7.200526 
1.504597 23.17361 1.950693 
-15 10.68494 -2.549858 
-16 12.4603 4.21296 
-0.3962734 14.80462 13.70714 
-7.134923 18.18317 -12.47745 
-14.5 -1.575227 5.660187 
-10.76528 1.320931 11.25 
1.456455 8.290155 12.23223 
-6.443603 19 -11.80223 
16 11.49308 10.75465 
-12.115 14 -13.30867 
8.40346 8.390226 -13 
14.5 2.91818 -7.776003 
-11.96427 13.5 13.45911 
-14.5 -3.605714 6.126185 
11.19669 8.571299 -14 
-7.169852 -2.723156 10.78784 
7.026554 7.633702 -14 
-13.52523 13.92009 5.778997 
-8.884671 22.95682 -6.917283 
6.824074 9.317128 -12.92342 
3.347156 2.595929 12.24999 
-14.69079 17.59701 0.6931789 
-6.568235 3.892411 11.25 
12.40126 -3.4 8.099615 
-6.99944 22.68859 -9.50848 
10.80248 -4 3.768228 
-15 9.671753 9.464025 
5.82502 -5 -2.459009 
-16 9.741962 3.518769 
14.5 4.164183 5.73243 
0.03655529 -5 -10.79379 
6.211322 19 -11.59566 
16 8.918241 -1.544769 
-13.90204 13.3887 -13.69777 
11.6011 -1.219896 12.24999 
14.45174 11.47884 11.80059 
15.5 3.686374 -4.313879 
14.5 -1.682768 -3.180833 
-12.08628 14 13.02963 
-4.673204 8.077573 13.5 
-7.193033 5.536541 -11.52275 
12.69129 2.724245 12.24999 
-15.5 0.930827 6.516483 
-0.05685759 18 -8.117045 
7.677962 -5 -3.402785 
-0.681534 5.893017 -12.97475 
-0.872741 -4 10.90993 
-3.367271 -4.75 -6.564387 
7.639143 21.95705 9.875001 
-7.793608 8.550817 14 
12.2741 -5 -11.05624 
-14.5 2.958059 3.545124 
15.5 -3.667198 -9.423546 
-15.5 3.119701 10.06642 
-8.445145 12.78094 -13 
-11.82608 18 -5.2152 
0.105471 16.79211 11.39579 
-13.75826 19.22414 8.064804 
2.301367 8.85 13.36232 
4.760112 18 -5.460333 
4.067694 10.67073 13.85363 
1.073104 0.3999447 11.25 
1.756167 18 2.592607 
2.537946 -4 -10.53463 
1.545719 16.95456 12.92463 
-15.5 0.9115329 2.727536 
-5.074263 7.218169 12.65612 
8.977108 23.00749 -1.822439 
3.494225 -4.75 1.512934 
-6.411977 17.60915 12.68637 
14.03713 -5 0.218462 
-11.69502 -2.75 -8.44769 
-5.999784 12.34577 -13.52893 
2.06422 12.20677 14.34432 
15.5 -3.975668 -5.394758 
4.221769 19.25 10.53242 
-0.8305487 10.18309 13.77675 
12.99052 3.030994 11.25 
-9.720434 14.27183 -12.83688 
-4.342335 -2.915334 -12.25 
3.501891 18 -9.760997 
8.31285 16.44027 11.84729 
-8.891682 19.25 -11.26224 
-6.780787 18 8.602322 
6.315541 2.182916 -11.25 
3.508069 18 7.110241 
-15 9.010802 -10.45329 
-14.5 -2.498636 -4.115212 
-8.362353 18.38848 -11.72258 
2.505201 -5 -10.62728 
-13.80871 9.196951 -12.44362 
-10.49245 -3.008087 0.1384291 
-16 7.428858 -7.421774 
15.5 3.699848 -9.583068 
5.231114 18 6.249369 
-7.604364 22.96258 6.555444 
-11.35156 6.80364 12.38479 
-8.261476 18 0.4092631 
1.233537 -4.885454 10 
15.78248 10.68777 -11.88407 
10.02958 22.93793 -0.6568112 
14.58652 -5 2.290261 
-9.248203 7.894238 14 
-7.851354 6.542543 12.20716 
9.492844 -2.5 -0.2634164 
14.17054 16.10259 -8.276459 
-6.360229 19.25 -11.60155 
-8.657947 -0.6136947 -12.25 
9.701099 3.206325 11.25 
-15.37292 -4.641764 -4.589594 
15.70431 14.8124 9.418613 
-6.368667 18 -8.331363 
-14.92816 7.126695 -9.537124 
8.276115 0.7281091 11.25 
14.5 0.1276119 -8.330262 
-4.777534 -4.75 4.61325 
-12.75589 4.678601 11.25 
3.214877 -4.75 9.178793 
14.5 1.184548 -2.285397 
-12.1146 17.45286 2.083208 
-6.392365 8.556169 -13.49814 
14.5 1.918872 -1.197265 
10.65679 21.24583 9.875023 
-2.191542 -0.5420116 11.25 
8.325277 11.08462 13 
4.435398 13.63371 -14.06272 
12.375 21.32556 -4.636838 
-14.11635 16.1651 1.466241 
7.989931 -0.9299363 -11.25 
4.531037 19.25924 -10.875 
11.33772 -4 -6.254442 
11.67625 1.71689 -11.25 
-14.5 2.157705 -6.744283 
1.576787 -4 -0.125983 
0.7275925 -4.75 -9.007855 
9.908101 -5 5.888939 
-14.5 3.392382 5.681093 
-15.5 0.3661106 -4.854589 
-3.273399 21.46281 9.875 
-12.28542 14.68058 -13.75229 
-13.5194 19.25 8.090432 
0.3267553 15.67195 11.84537 
15.81857 13.48163 10.11149 
9.605721 6.555998 13.4258 
-10.21662 12.86931 -14 
6.566722 -1.510152 12.25 
4.017048 3.409682 -12.24999 
12.30972 12.37721 13 
3.120345 22.59121 8.785336 
13.22693 -4 -10.41656 
10.68136 -5 1.30068 
1.285678 19.50274 -10.875 
16 12.3122 -8.143456 
7.793825 22.6895 8.488642 
5.033609 0.5469755 -12.25 
-2.954026 22.09686 9.725687 
3.251395 4.290027 12.24999 
8.852825 12.63384 -14 
6.342349 13.73833 -13.79164 
3.405109 6.262928 13.22642 
-1.32951 10.99533 -12.09046 
10.41236 21.00271 -10.87502 
4.210873 -1.571465 11.25 
1.24843 6.104525 11.90916 
-2.462049 5.829041 11.72174 
15.50692 4.863341 0.8479876 
15.5 0.5633028 5.764307 
7.978037 -5 -6.285343 
7.85696 -0.05235159 -12.25 
10.10913 22.89904 4.761081 
0.725744 15.8778 11.83458 
-15 11.22669 -7.920174 
-0.946975 17.11671 -12.86561 
2.823231 12.8224 11.99471 
14.5 -3.586823 -6.99353 
-10.98641 19 -11.75261 
8.829847 -5 5.50082 
5.118356 -5 0.6332273 
-5.734761 -5 1.372396 
9.599812 18.76974 12.26396 
-4.776761 23.0071 -7.302382 
5.776912 1.140111 -11.25 
-9.305634 -4 9.912539 
13.20611 -4 -5.639019 
-14.71474 13.5 12.52093 
5.869693 18 10.58721 
4.063869 22.52213 8.941228 
-14.88723 17.05732 1.657341 
15.61839 5.436807 -7.19299 
-13.83588 -5 -1.234123 
7.219919 16.32636 11.66469 
-10.35092 -4 8.026802 
-1.377023 -4.664012 12.10805 
-10.09232 -4.144615 12.25 
6.464997 14.14495 13.94724 
0.0760591 -4.75 6.985227 
-13.01711 19.03339 10.97802 
-12.03237 16.51302 -3.144865 
2.194754 1.230768 -12.25 
6.212901 19.43348 9.875 
-0.6660548 2.406428 -11.25 
9.808578 19.09327 10.93861 
14.5 2.028917 7.344292 
7.212553 -4 6.706107 
-11.59108 18 10.59024 
13.82488 11.14237 12.42745 
-12.87102 15.22842 -10.17047 
15 9.770101 9.568103 
-4.526337 23.10118 -5.166368 
-6.600502 -4 -7.749962 
-0.8892345 18.90491 12.19975 
-2.065088 8.988013 -12.9 
11.65784 14 13.7372 
-1.113402 10.1853 -12.13291 
14.88067 17.07534 3.51934 
-15 9.290384 9.688635 
16 12.62558 7.807799 
8.12384 -1.055862 -12.25 
15.5 0.1580212 0.9461639 
-13.29023 16.14827 7.262498 
-6.327703 18.04141 -12.52905 
-16 13.15217 -3.409496 
-12.80852 15.75233 -9.778704 
3.153638 -0.3283721 -11.25 
1.939028 6.510322 12.18524 
5.495097 14.95975 -13.65068 
6.746716 -4 8.712563 
-4.68508 9.7 -13.38881 
-8.852895 17.85711 -12.59613 
8.665106 18 -0.2446356 
-2.829662 13.74265 -14.03695 
15.5 0.9509296 -8.157285 
-12.08781 19 11.3369 
-14.96974 -4.955774 -5.406134 
-15.21465 16.15773 2.917524 
-2.190023 6.638195 13.48172 
-14.37002 -3.004968 10.73436 
9.283774 22.98499 3.022064 
15 12.58193 10.36255 
11.80903 16.88031 -12.95165 
-1.438059 10.16523 -13.43609 
-1.748358 18.35124 12.41628 
-11.84495 20.8721 -10.79939 
0.1105113 -4.75 -7.990169 
13.65115 -4 -4.027314 
2.65514 23.15547 -2.989042 
4.64202 18 11.62179 
-4.511456 23.02647 5.835376 
15.5 4.710203 1.196355 
3.886342 16.22501 11.72321 
-2.09321 9.176113 12.1858 
-9.104599 8.667791 14 
-2.847583 18.88705 -11.54111 
-15 9.484434 -5.766037 
-6.701179 -2.518703 8.542555 
14.5 3.796678 -2.402631 
-0.7713756 23.13081 -5.450584 
-5.311469 9.244671 -12.90893 
-15.74876 6.107502 -5.149858 
-2.416397 -4.676689 12.09958 
-15.5 4.00561 -6.683993 
3.13041 1.805459 12.24999 
14.62204 14.98749 -4.398902 
-5.859417 8.468109 -13.5 
1.028957 23.07818 -6.273379 
-15 10.57976 8.119442 
-9.784169 -2.912222 -10.95286 
9.976768 9.395196 -13 
-15.5 -2.290441 7.121631 
15 10.77503 -10.44296 
15 10.15793 7.314082 
9.932396 -5 -10.37967 
-6.02986 18 -9.341889 
-9.269105 12.51429 -14 
-10.19991 -5 0.7482274 
-2.712564 -4.75 7.048073 
-15.9539 14.12667 4.059976 
-7.070855 0 -11.73975 
14.34001 15.63699 -8.573575 
16 8.548847 -10.24645 
4.257499 10.14475 13.04533 
4.014853 15.57219 -11.8506 
1.571668 -4 -10.2312 
15.5 1.420984 -3.940446 
14.5 -1.314453 2.025559 
-13.78397 16.94626 -10.90619 
5.093566 -2.5782 -11.25 
-1.832359 -4.75 7.922463 
-10.99435 -4.75769 -9.571035 
14.0107 18.28374 8.889747 
-3.373329 -5 10.77557 
-3.071894 15.39956 13.4906 
-11.38762 -5 -4.204523 
12.375 20.97947 5.951776 
6.830051 -5 -6.275704 
15.5 -1.635242 -3.416803 
0.5474327 3.861185 -11.25 
12.90115 13.5 -13.19774 
-5.75 -2.298036 8.845513 
-14.11498 13.34881 6.124338 
-15.5 2.529179 8.805676 
-0.06508259 4.866384 11.25 
-0.05350232 -2.211679 -12.25 
-7.594334 8.860365 -14 
-12.00476 -5 10.10339 
3.627942 18 10.54924 
11.43545 20.11395 9.761764 
3.69967 7.673895 12.26453 
5.822521 -4 -1.335991 
14.89616 7.19872 10.9152 
15 9.715029 0.009421349 
15 10.21366 6.872241 
14.5 -3.3845 -7.398185 
-10.06555 -5 5.492071 
-15.02788 -2.760547 -11.16649 
-7.75055 18 -7.704797 
8.98061 -2.689258 11.25 
-15.47828 -4.359205 3.668456 
-15.41777 -3.846059 10.75712 
-1.841978 23.19366 1.068448 
-14.60688 17.82755 -3.366601 
15.5 -0.0485 3.794854 
-12.14553 17.80638 -5.666293 
8.345177 -4 8.999724 
-10.15525 -0.6376452 -12.25 
13.90961 -4 2.722109 
-14.5 -1.846695 5.655246 
14.22897 -0.6392682 -11.9654 
-1.582042 8.85 13.18582 
1.396041 9.412453 12.94249 
10.31957 0.1691252 11.25 
5.684282 0.009406626 -11.25 
9.262419 18.10496 11.82577 
-0.675492 16.1402 -13.22103 
13.96288 18.10856 -11.63294 
-9.077733 -5 -1.317598 
3.95746 -3.647256 -12.25 
9.777468 17.82422 -10.50817 
4.752841 19.8468 9.875 
-6.488279 8.85 13.20636 
1.757573 9.7 -13.22165 
-12.875 21.36087 -4.226903 
10.60009 -4 0.07346541 
-7.323555 -5 -6.679349 
16 10.08166 -2.047548 
9.426415 22.97822 3.417002 
-3.598601 8.567178 13.31169 
-15.5 4.552289 -9.125576 
-3.370588 16.50363 -11.56235 
-5.424873 23.1275 -3.054729 
4.526944 7.279396 12.2852 
11.03139 18 -9.172564 
-14.5 -2.286743 0.09351182 
9.910557 -3.668521 10.84491 
15 9.237224 -6.807198 
-15 10.30622 -8.852345 
-14.16934 13.72806 -6.770857 
14.5 1.224237 6.569761 
15.98747 7.335535 -1.491351 
-14.5 -3.160849 9.704288 
-15.5 0.2526667 -6.596402 
-14.06926 18.12285 3.042397 
9.857686 18 0.6768342 
-11.64933 -4.578661 12.16508 
-14.84496 17.17343 -2.34497 
16 9.696848 1.582462 
-14.0911 13.57353 -6.089534 
15.99901 10.06465 -11.46693 
2.103994 10.94169 -13.59533 
0.08717409 11.09675 13.5872 
-15.5 2.419301 -1.963741 
1.780009 23.21333 -0.2759514 
5.928094 -4 6.652715 
-0.07159901 20.53615 9.875 
-1.921102 23.05368 5.647365 
-2.516559 11.37348 12.07064 
-15.63468 5.520573 -4.244988 
-12.17995 20.49942 -10.63422 
1.550038 7.459766 13.43886 
5.888289 5.664937 -11.6101 
10.03298 7.52762 -12.87734 
-1.22647 18 -0.6650962 
15.5 2.399624 -4.832273 
-13.80057 19 -4.877089 
-5.503128 16.45497 -13.10647 
12.27732 -4 -7.985944 
2.593031 16.09998 11.78092 
-15.69488 5.8303 -9.430947 
13.28394 -5 -6.606911 
-15.52564 15.3033 11.46827 
-8.047567 -5 -6.274943 
-8.086082 -5 2.506354 
7.690454 18 11.14983 
-8.889567 17.25362 12.81578 
6.420847 7.978563 14 
-14.44127 -4.670099 -9.078007 
9.923692 -5 -9.61997 
-14.48762 -4 0.7336802 
5 -4.79908 0.5732843 
-11.20517 18 0.6684723 
-12.87489 22.00007 3.020373 
-11.39803 11.59516 14 
-12.23115 17.98632 4.135737 
11.33104 18.7047 11.60748 
-13.7622 18 -0.5987248 
15 9.532759 -4.722837 
7.737221 17.04848 -12.89045 
6.317437 15.21173 11.86949 
-14.9941 9.516888 -10.898 
-0.9264176 -4 2.850347 
-0.4799359 -4 9.254332 
-9.695422 22.9874 -4.081161 
-4.34854 4.039629 -12.24999 
2.888501 18 11.77517 
9.912995 18 -6.850657 
-14.18566 -0.465122 10.97059 
-4.255484 23.10731 -5.111578 
15.20038 -4.833512 -2.40305 
9.305202 18.98966 11.50376 
13.8612 18.69448 -9.11732 
12.3788 -5 -10.91414 
-9.120637 1.720089 11.25 
-0.3523238 -4 -3.023996 
-10.02943 -5 -2.185836 
0.9437616 10.14407 13.03235 
-9.510878 -5 7.077444 
6.719839 -1.63029 11.25 
-15.47632 -4.369051 -3.33447 
15.5 4.654183 5.216646 
-12.14436 17.79307 6.429396 
1.73025 18 -11.60189 
-14.03808 18 -1.982557 
10.78181 18 -10.65157 
-10.73312 22.17783 -10.56027 
0.7316496 -2.321611 -11.25 
-3.496521 18 9.070269 
0.7625291 -1.259165 -12.25 
-15.5 -3.369092 8.23664 
15 8.805944 -7.402319 
-3.375031 23.1856 -1.245908 
7.774782 -4 8.614082 
-1.711094 -4.909233 11.83652 
-14.59941 17.8481 3.553812 
1.198625 -4.75 2.318289 
-11.65802 -5 -3.187223 
14.97275 7.35608 -1.668336 
11.11668 -5 -1.093301 
6.804519 19 11.44183 
-15.5 4.307087 3.857807 
-15 11.81486 -8.157402 
12.63538 17.5137 12.72112 
12.37361 18 -5.487943 
14.84847 6.716738 0.3421733 
2.863444 7.299116 12.73308 
-14.61451 14.79641 -1.089375 
16 9.611185 9.302282 
9.864196 6.332835 -13.27397 
-14.90329 6.998767 6.923837 
-12.18254 18.11263 12.50312 
-8.718328 -4 -9.155194 
13.75856 -4 -6.893594 
15.55818 5.127017 -4.66432 
2.355263 -4.75 3.229458 
2.563099 -3.165547 -12.25 
1.584486 7.733037 12.26143 
10.14324 22.12465 9.675812 
-6.125452 4.290756 -11.25 
0.3307617 23.23547 -0.2321026 
-10.78177 -4.112476 12.25 
10.02274 22.88527 7.02345 
-14.87473 7.055218 -12.59449 
-9.957001 22.99635 -1.170702 
12.31662 10.28492 -13 
0.415271 -4.75 0.06888008 
8.269917 -4 -8.932344 
14.55708 17.96438 -3.837178 
15.49866 0.3745542 -10.49726 
13.7698 18 -4.164483 
-3.321118 18 1.396663 
-6.825656 11.9738 14 
15.56142 13.5 2.842819 
13.25154 -5 -8.101909 
-14.5 0.009692311 -6.522013 
3.81548 12.66264 14.05552 
15.20213 14 9.189197 
15.62099 5.450159 7.625474 
12.01386 11.37967 -13 
-2.939926 17.87126 -10.50734 
-14.5 -0.7403463 -3.736534 
12.28726 -5 -5.970468 
2.435272 18 -5.892447 
16 8.751833 -10.2508 
13.77094 17.80066 -5.475528 
5.674542 18.19456 12.4733 
-1.737319 -4 5.749746 
-15.97001 14.08241 -8.656168 
0.7920507 4.112749 12.24999 
-15 11.70961 10.4753 
-2.770737 18 9.552588 
-5.024026 22.79821 -9.161866 
-6.057178 -5 0.493266 
3.253535 18 3.84596 
11.22943 -4 0.08869714 
2.329287 18 7.978894 
9.826627 18 -11.66713 
-8.886181 -5 1.968488 
15 8.601828 -2.429068 
-3.041777 -4 5.352042 
-1.723844 23.21254 0.209803 
-15.55539 5.112679 -0.8336127 
9.983829 11.64485 -13 
10.85345 11.17925 -14 
5.862996 4.572228 12.24998 
0.3002697 12.52286 12.0104 
-9.698898 3.458901 12.24999 
14.98227 13.25826 11.01816 
-9.98266 18 -0.4403605 
-13.14703 -1.713991 -12.25 
9.020495 17.71846 10.55409 
15.47015 14 5.609389 
15.5 -1.863856 7.744799 
-15.5 -2.421051 -4.225204 
-4.83315 0 -12.05875 
4.021365 22.34072 -10.31357 
-12.8378 18 9.86573 
-2.193766 2.602394 -12.25 
7.070955 -4 -4.757417 
-14.75072 3.256246 11.44365 
1.973713 15.47256 11.85582 
-14.95125 7.24547 -6.091496 
2.210879 10.286 12.12763 
13.24404 -5 11.37747 
-14.4493 17.43228 12.32056 
-0.6438036 18 6.040322 
4.520362 23.14737 -2.016019 
6.003614 12.28412 -13.71105 
-14.27468 -1.651535 11.91968 
3.748741 -3.920856 11.25 
-0.4656302 -1.000103 11.25 
-15.11872 -4.887828 -3.667967 
-1.018667 18 3.695622 
4.82432 8.723345 -12.20953 
1.211217 18 6.152143 
0.2812667 19 11.54571 
-1.134371 -4 1.808835 
11.03587 2.129375 11.25 
11.30171 -0.8149163 -12.25 
-12.9683 8.760243 -14 
-13.60527 -5 -3.744834 
6.806581 16.74864 -12.99958 
6.515882 19 -11.93136 
15.5 -4.103284 5.444411 
-11.0887 16.64112 -13.03871 
-7.124374 -4 -0.008955967 
-1.704585 19.25 10.49919 
-12.31315 15.84508 -9.339599 
2.568519 8.235271 -13.45095 
15.5 -0.1377516 -3.915441 
-15 10.84549 -10.1811 
-1.655855 9.376352 12.1753 
-8.714344 22.94753 6.643879 
4.450877 19.22721 -11.74295 
13.1908 10.09379 -14 
2.335719 18 3.960644 
-3.57972 10.15995 13.33538 
0.5893557 -4 -11.15654 
-5.972377 -4 -9.440557 
13.96863 18 -6.907127 
7.717956 -4 -1.360981 
-13.7778 18 0.5987821 
15 9.424121 3.80844 
11.38015 0.3704285 11.25 
-8.308767 18 3.207749 
10.23933 6.36419 12.08582 
-12.85316 13.72329 -6.177111 
-12.68532 -0.2669544 -11.25 
-14.85431 7.209084 -12.70297 
-9.146772 -5 -2.504766 
3.339319 12.53247 -14.32725 
-13.03289 14.03256 -5.961601 
16 8.979874 9.469371 
1.665783 12.44115 12.01469 
-1.175286 15.3993 -11.85966 
15.601 5.347312 -4.844836 
-12.03349 15.8 -1.246158 
-13.85256 16.83412 -7.452457 
-7.490888 -0.9592471 -11.25 
4.240052 -4 0.4724392 
-8.88662 -2.062492 1.490605 
-6.370001 10.19239 13.79128 
-9.429605 -2.583078 12.25 
1.629787 11.68431 -14.16892 
4.589955 12.2755 -14.34072 
13.45579 17.40253 -12.76158 
-5.001686 7.565887 12.98673 
-0.6764455 11.86243 -14.36237 
-15.05017 14.00604 -2.501852 
15.5 3.107451 -0.8171341 
1.041871 19 -11.9035 
-14.21982 17.51337 12.52886 
-13.0986 12.07921 -12.95926 
0.244952 -4 6.048134 
9.5815 -1.74244 0.2437708 
-4.424029 -3.02756 12.25 
-7.681559 23.05462 -3.333139 
13.8855 18.62771 -1.867665 
1.067142 -4.834391 -11.94906 
6.628926 8.85 13.3291 
-2.766718 18 -1.874114 
6.608397 12.56389 -13 
-14.5 4.409195 9.116876 
-13.48281 18 -2.195761 
-5.712733 -4 -3.713356 
-12.20228 15.8 -1.449729 
-11.35159 22.71918 6.951039 
8.277709 7.253382 -12.79056 
9.581309 3.584518 12.24999 
-8.866447 -4 -8.31772 
3.251725 -0.3338525 12.24999 
-13.57293 -3.315523 -9.406529 
-7.120161 7.900718 -13.39551 
8.603889 -4.853251 0.7808259 
-0.6793232 7.562876 12.98386 
0.5530326 22.93892 7.541854 
-8.871758 23.01 -4.607562 
-8.916368 -4 -3.13942 
-5.944973 -5 -5.877404 
12.60634 3.81473 11.25 
-12.89416 15.95134 -8.454668 
-3.270792 -4.75 6.270264 
10.68229 22.69282 -8.870829 
-12.28386 16.264 11.84236 
15.5 3.57692 -1.053245 
-5.086173 10.20773 14.24694 
-1.758006 18 -2.53825 
-5.219611 8.630123 -12.21441 
5.483476 6.989744 -12.62476 
11.84231 19.56452 9.515681 
15.5 0.4896101 7.604429 
-1.380814 2.751078 11.25 
13.59242 -4 -4.749273 
-10.61265 8.686502 -13 
15.17887 -4.847822 1.493258 
2.541575 18 4.854928 
15.87949 13.46202 5.40109 
1.267324 3.280856 12.24999 
-9.205793 1.931306 11.25 
-13.68343 19.23914 8.049523 
-14.8236 16.95806 12.07016 
-3.936131 -3.484411 -11.25 
16 9.909044 7.451374 
1.193774 13.57368 -11.95533 
-3.615765 3.083133 11.25 
2.558445 8.986215 -12.94678 
6.478951 1.032509 12.24999 
2.734221 12.4148 -14.33342 
-14.71373 13.09668 12.95282 
0.6684644 5.658518 -12.81522 
-14.90702 -4.968388 -9.723476 
7.506702 5.822335 11.71718 
-15.5 -2.151644 4.042872 
-9.789295 18 -5.992714 
-6.193258 18 -8.885873 
-4.448115 15.2067 -13.5608 
-12.06958 16.93826 -6.569283 
-3.045918 3.726623 11.25 
-12.89281 15.87379 -5.021538 
14.5 -0.9953119 -4.761558 
16 10.10079 -0.5600138 
-9.07126 18 10.59456 
-16 11.04212 -10.74396 
-9.765729 -5 2.544826 
13.11897 -5 -9.466675 
5.966826 18.0458 -11.8473 
5.669086 22.72133 8.41483 
-11.02981 7.141913 -12.61493 
1.688595 -4.75 6.598183 
-13.20206 18 -5.496555 
4.355503 7.50465 -13.48592 
-15.5 -2.174558 8.403808 
-13.397 14.96699 -7.225566 
-6.892132 21.70267 -10.875 
-1.104291 15.97266 -13.28201 
-14.9364 7.169111 2.09912 
15.99377 7.367967 6.705257 
-5.758333 23.06005 -5.818239 
-8.042812 22.96872 5.81921 
-14.13925 8.074108 12.11308 
-14.5 1.901707 9.15526 
-5.365194 7.041239 12.4879 
5.010986 0.1364031 12.24999 
14.5 -2.281143 -3.841359 
12.01633 18 -11.42182 
14.10902 16.44148 8.006873 
4.315041 7.739841 13.5 
-8.192185 3.986119 -11.25 
-14.5 -2.258328 -2.33279 
-11.27602 22.77077 0.5747554 
6.25289 2.896728 -11.25 
14.48964 18.14968 -1.845984 
15.43545 14 1.508917 
-2.751911 18.74665 11.59221 
-14.5 3.665975 9.239704 
-8.865172 15.95744 12.16455 
12.58562 19.25 0.01658154 
-12.86172 12.87025 -6.170834 
11.86337 -5 1.288414 
-12.86965 14.54733 -12.40736 
-2.630867 18 -10.83985 
-11.0466 18 11.55603 
-13.25779 18 7.112629 
-4.472646 17.53823 10.73432 
10.98032 19.21838 -11.78439 
12.17712 17.52909 -12.71552 
-14.5 0.5779541 0.8097727 
-12.61649 18.84956 11.55476 
13.77349 6.968151 -12.12027 
-8.118226 17.9878 10.50531 
9.684976 3.780477 11.25 
-12.90039 13.98209 6.894101 
-13.37296 19.25 -6.236776 
-15.5 1.138721 -8.330351 
-4.811466 5.938288 11.79607 
-3.173213 18 -10.67515 
-7.817413 -3.539237 -12.25 
6.949195 -5 5.061731 
14.92204 16.05861 -12.20669 
-10.96026 22.84573 2.012167 
15.5 -2.849359 4.748672 
-15.45195 7.518152 -12.21459 
-15.5 0.3445704 -5.599092 
-4.666042 11.40595 12.06894 
-4.908033 0 -11.32695 
-4.48041 4.68111 -12.24998 
-1.514159 9.700001 -13.00631 
-2.156764 18 -7.906719 
3.332677 18 8.35252 
-12.14751 17.82911 -7.576489 
14.86078 14.20617 -8.806649 
-13.0077 12.00999 -12.98454 
2.836819 23.15055 -3.179607 
6.564103 -4 9.16475 
0.1622307 6.732629 -12.33648 
-4.930473 8.835814 -14 
-1.256305 18 10.6751 
-12.4664 18 6.985583 
-7.920438 18 8.827374 
-12.31763 1.825178 12.24999 
-15.87115 14.35401 -10.7555 
-14.69534 5.928976 -9.172354 
13.62927 -5 1.261671 
8.049522 6.410714 -13.32696 
3.564773 7.56174 -13.5 
-2.329255 4.689842 -11.25 
-14.77782 17.35791 -3.227185 
-7.731541 -5 5.029542 
-12.2472 17.99589 -5.045805 
-15.23061 16.11387 2.298496 
15.08571 16.51199 -6.640478 
-8.897533 -4 -6.757958 
-0.6136464 15.38146 13.49719 
-14.38488 18.43749 -10.47688 
-1.330444 18.82372 -11.56416 
-10.62376 -1.334352 11.25 
-12.05438 16.76454 6.557382 
16 10.8988 4.582645 
-15.78737 6.306093 7.092263 
-5.705922 -0.1327997 12.24999 
-14.60657 5.47225 -1.229779 
-9.166004 14.34998 -13.87262 
3.890346 4.068888 -11.25 
-4.041811 12.66833 13.72975 
-15.5 -1.091913 5.680808 
4.400079 18 -11.5225 
-12.39633 1.925819 -11.25 
15.5 0.1780508 -4.882587 
-1.537888 18 -8.423138 
3.267121 19.25 -10.90204 
2.925153 14.1978 -13.92801 
-13.76687 18 -0.3677688 
14.06753 16.88457 -4.87905 
4.64892 23.03017 -6.662643 
-0.9653137 18 0.224187 
11.76955 -5 -8.688732 
-3.728177 10.01847 -12.89268 
14.59413 14.59583 -12.91676 
-2.740363 -4.75 -0.5646601 
-14.51941 5.023885 0.7154737 
15.64702 5.584077 -10.61694 
3.454977 10.60908 14.41729 
7.206383 -5 6.409527 
-3.968333 6.780779 -13.57872 
-11.33635 17.65338 10.61917 
3.855818 -1.895648 -11.25 
1.666635 12.66717 -13.79615 
-15.4009 4.092154 -10.73256 
12.45439 14.76765 -13.7206 
-9.176167 -5 4.399341 
-4.157492 17.13451 -12.85913 
-3.011904 -4.75 3.671536 
-14.37967 18.45183 2.312226 
-16.00051 11.09408 9.636374 
0.7519833 8.574797 -13.09353 
14.40975 -4 -5.789704 
11.55379 0.5316905 -11.25 
12.72312 6.902241 12.45188 
-0.5285549 23.01802 -7.632918 
0.5282626 21.643 9.875 
-5.170345 -4 3.302701 
6.113701 14.74923 -11.89372 
16 10.11309 -7.353612 
14.15991 14 -13.29283 
15.5 4.426309 6.908608 
2.145021 -2.579861 12.25 
10.35487 -5 -9.703699 
14.5 -3.861512 -3.827914 
0.7094786 -4.75 -9.328565 
10.06608 11.82329 14 
-0.2299983 3.042026 -11.25 
16 11.22471 7.794912 
-15.5 -1.762425 4.117185 
14.10478 18.02524 1.371707 
4.063311 23.1623 -1.469831 
-3.062661 -4.75 -1.0129 
7.244348 16.93623 12.9313 
-0.9856582 17.59664 -10.67591 
9.530594 8.093639 -14 
-9.027588 -4 10.28604 
-3.250514 1.715361 11.25 
1.166921 -4 -1.994862 
9.60312 18 -0.2483093 
-14.5 4.847155 -7.732026 
-14.86852 5.066124 11.46229 
-0.01977682 -4 1.652458 
-14.5 -3.051254 2.050519 
10.16095 17.45323 12.74313 
-15.42247 -3.347503 10.75098 
2.261434 7.231617 -13.88544 
-7.844287 22.91269 -8.510714 
-2.926113 1.453554 -12.25 
6.504193 18 -5.185701 
8.397518 0.7343241 12.24999 
-0.07349348 14.88219 -11.88676 
2.814263 18.51701 -12.35594 
1.242862 3.882903 -11.25 
7.401012 6.762572 12.35685 
4.901824 19.26958 -10.875 
-11.26892 18 4.560588 
15.83188 14.46191 2.638489 
-10.24784 11.37936 -14 
-12.03178 16.5063 -7.658095 
13.3989 18.52967 -11.67118 
3.849468 19.25 -11.6066 
0.1352339 -5 -10.91487 
-14.2134 13.40658 -6.607536 
15.2468 -4.802635 3.06108 
-6.505441 12.88912 -13 
-10.60948 -4 -4.173601 
-13.4324 12.37654 -12.7997 
-15 13.05358 -1.701089 
-14.5 0.389298 -2.520078 
7.946905 18 3.871668 
-7.404853 20.00651 -10.875 
-3.818536 17.75408 12.63363 
-15.0595 16.584 9.757335 
-14.87861 -4.974133 -1.646592 
-9.283364 -3.052686 0.7411164 
13.7312 10.79754 13.90989 
8.438519 -3.242665 12.25 
7.070647 7.839404 14 
14.26626 2.768576 -11.92811 
-15 9.196081 -7.723126 
3.539434 15.73022 11.84231 
3.207332 1.440232 -11.25 
-15.5 1.098741 6.9353 
3.289888 -4 0.1276243 
-15.76802 14 5.834108 
-8.008274 17.28292 12.80511 
14.83828 0.3723376 -11.35608 
11.01933 -0.3996055 12.24999 
13.93867 16.73965 -10.06611 
-8.444305 -5 10.54507 
-10.90572 10.0675 14 
13.43027 9.745652 -14 
11.70945 1.324609 -12.24999 
-2.380006 -4.75 7.141768 
4.809351 -4 1.67578 
-2.885684 23.18379 0.729797 
-7.974257 -4 8.502648 
14.5 -2.790489 -2.693381 
14.5 -3.139068 -5.525504 
-14.4839 3.216283 11.71047 
15.64561 5.576805 3.749451 
-1.004286 13.1252 11.97884 
15 7.791796 -8.586479 
15.5 -1.142841 5.081222 
0.6414896 -4.667512 -12.10571 
16 8.620403 0.1007552 
9.217397 7.977927 14 
13.42925 14.4124 12.69141 
-14.35101 18.53055 11.54272 
8.661579 -4 1.973185 
-7.859635 23.08339 -0.2021862 
6.543886 4.355891 11.25 
11.40633 -5 -6.941873 
16 9.128006 -1.682745 
-3.014513 -5 10.67887 
4.741481 -1.831819 -11.25 
14.80771 14.352 -8.023344 
16 8.628729 -9.137083 
-13.00903 18 -4.752371 
-14.5 -0.5577083 -0.5676219 
13.95035 16.70757 -11.06238 
8.709321 1.356472 -11.25 
3.460384 -4 -3.565488 
10.03156 -1.75 -8.490935 
15.76808 6.206882 5.222966 
-14.60921 5.48582 1.341482 
-14.5 4.80766 4.031522 
-2.680403 -4 9.554541 
14.95156 7.247059 9.583969 
14.44623 -4.249922 9.252741 
9.244884 22.9821 -4.720395 
-9.40247 -3.346154 -11.15631 
3.302029 -4 4.658694 
14.5 2.814572 -7.053059 
7.064182 14.21576 13.92147 
8.669415 12.41999 -14 
-9.027094 19.26202 -10.875 
0.8339186 18 -7.51422 
8.072111 17.74822 -12.63576 
-15.34849 15.79001 9.200954 
4.249928 13.18126 -13.47796 
-14.5 4.645968 1.769962 
3.790331 18.99811 12.02316 
15.5 -0.5992699 2.788185 
3.723681 18 11.02082 
10.79576 14.60507 -13.77977 
3.347416 19.25 10.5317 
-15.5 -2.58178 4.098288 
-15.5 3.663603 -1.292633 
-6.776029 15.55658 -13.43345 
7.423325 22.94173 -8.203821 
13.16259 14.88494 -13.67791 
-3.268464 12.66496 -13.92274 
15 13.39427 0.6842022 
-0.4619138 2.180277 -12.25 
-11.84777 22.55901 -5.430415 
-4.724051 -5 -10.93212 
4.731187 8.987492 -12.19568 
8.866841 18 -6.960799 
4.307645 3.114547 11.25 
11.08068 22.66376 3.247713 
-5.937899 -4 -7.608472 
7.85868 -4 -9.928637 
7.229516 20.98924 -10.875 
1.822168 5.987435 13.03899 
-13.98162 18.36364 -9.217489 
10.07857 -4 -5.59534 
-14.5 -0.1211059 5.32444 
3.000223 15.18579 -11.87085 
1.062362 23.20868 0.5340768 
10.65841 -3.638647 12.25 
-5.59597 23.11218 -3.971246 
14.69039 8.579792 -12.97615 
-15.5 2.958915 -9.539602 
4.483833 -4 -0.6586855 
-5.568287 20.09994 9.875 
14.39208 6.179068 -12.5757 
-13.82874 19 8.369211 
-7.656093 -4 3.036861 
8.642826 -4 4.068153 
15.54765 15.24282 -6.162759 
-16 7.876008 -6.373454 
-9.280924 10.76573 14 
10.84414 -5 2.03391 
-14.5 1.182822 -8.381056 
-15.5 4.551941 0.5898268 
0.2333329 23.22523 -1.363427 
-5.615947 8.812128 -13.47447 
-12.00297 16.17698 -3.164714 
7.937749 18 8.439276 
-15.5 4.620518 8.700051 
-1.656235 10.18279 13.77104 
-12.67855 -5 -0.9686046 
6.821201 6.756155 13.56197 
-10.02864 8.417276 -14 
-0.7597446 18 -11.60162 
9.882431 21.58887 9.875007 
-12.28161 14.25361 -0.4701651 
15.63656 5.530266 -5.828026 
-5.766306 -2.318122 -11.25 
-8.00164 8.900346 -13 
10.80589 -5 3.102027 
1.768433 4.922885 11.25 
2.156388 -2.942817 -12.25 
-7.47692 14.8224 13.70067 
11.60204 6.863688 -13.63513 
2.051626 8.726805 -12.20935 
-7.678022 18 -1.777304 
-15.99835 13.25614 -9.11175 
15.1917 12.30921 -12.47484 
-12.07008 -4 -1.86052 
-4.607682 -3.953842 -11.25 
-0.6213198 9.640814 13.90069 
-3.667471 10.39166 14.43945 
9.55587 9.65318 -14 
-10.50899 18.57034 11.65638 
-14.86357 -2.851457 -11.33079 
-14.06773 10.86216 12.1846 
-4.465247 18 -5.742495 
-9.150934 -4 -9.095114 
4.283773 -5 -11.25525 
8.067936 -5 -2.580719 
15.5 3.484944 -1.15187 
1.640637 -4.75 -6.31243 
14.5 4.708052 2.47684 
-12.875 21.25983 -4.520253 
5.081464 4.692098 12.24998 
5.040687 -4 8.861495 
-11.32405 9.256479 -13 
-5.192665 -5 -7.763482 
7.754712 -4 -10.424 
11.03846 18 9.746164 
-0.6867185 18 10.32639 
-15.94358 14.155 -4.991024 
6.999715 19.25 -11.30992 
-3.814827 -4 -5.573817 
10.49722 6.054162 -13.08438 
-3.920049 19.93624 -10.875 
15 8.697379 8.364544 
-11.49264 -1.054873 -11.25 
8.870846 14.20077 12.80538 
-3.756136 23.13181 3.128026 
16 8.705014 7.677946 
0.3305914 14.85672 11.88809 
-15 9.495823 2.125713 
1.147785 23.09678 -5.895782 
4.503041 13.27603 -13.64734 
-3.961251 17.60337 -10.66918 
0.9684582 12.56046 14.32578 
13.96954 2.257704 -12.16725 
5.701263 -5 -1.985199 
-13.96054 18.42156 0.442688 
2.831899 4.579007 -11.25 
10.30903 -5 -0.1605487 
-12.88997 15.64507 5.99422 
15.5 -3.065827 -8.072377 
-14.5 1.22174 9.093684 
-13.75992 10.13644 13.89279 
2.034519 -4 -5.831548 
-9.734392 3.191651 11.25 
5.788352 -4 5.225418 
-14.5 3.30077 -4.027783 
-15.5 -2.863375 3.061613 
14.1616 -5 -0.5992898 
1.488047 23.19013 1.129834 
-7.042956 18 -10.78314 
-15.58417 15.14247 0.1836143 
11.57239 5.978233 -11.82324 
14.98743 9.372207 -10.93413 
-12.18468 -4 -4.223684 
-6.704169 -1.75 10.28589 
3.144111 4.721062 -11.25 
6.256567 15.18337 -13.56929 
9.151705 22.92075 -8.2075 
-14.5 3.593275 7.134295 
4.39185 8.567893 13.29122 
-8.319384 16.03321 -11.99712 
15.97459 8.354897 -11.53728 
3.298065 22.60427 8.752027 
-0.6961002 3.096685 -11.25 
14.48493 5.113423 10.36477 
-10.60859 -3.280083 -7.98387 
-16 7.705036 2.211255 
-11.71222 14.71646 -13.73923 
-13.84575 -2.75 -6.693858 
1.375432 10.20564 14.20704 
14.83031 5.394177 11.68825 
-8.767304 20.66213 -10.875 
-15 9.302467 5.002559 
-12.33038 15.8 2.505494 
-12.86453 14.25353 10.77225 
-15.54592 5.063943 8.551935 
-11.85511 -4.015 -7.672528 
15.5 0.9896872 -6.193135 
-10.64913 22.88299 -6.799333 
6.952009 7.066572 12.75783 
-6.136742 -5 -3.514601 
-12.89401 15.94279 10.95863 
5.961393 9.748884 -13.89884 
15.5 -1.714861 -4.092416 
11.9914 18 -4.89483 
-15 13.38842 8.39537 
-12.0156 16.32134 4.613356 
15.78402 14 0.3896959 
-9.157629 18 0.5220122 
-0.008872986 8.85 -13.35568 
14.9702 14 8.798895 
10.9216 2.168823 -11.25 
13.81259 18.82803 7.345015 
14.5 2.532263 -6.869841 
-9.291119 22.6191 -9.682997 
-12.87454 19 -11.87938 
12.53242 12.11033 -14 
12.2332 18.45833 -12.3773 
-12.56801 -5 3.556257 
15.75433 6.136124 -10.07094 
-12.58345 22.1873 2.826574 
14.28728 -4 0.9433066 
-15.50291 4.840929 -4.341503 
-14.22212 17.5126 -12.52676 
-6.154243 -0.0224036 11.25 
-15.6125 15.06465 11.44 
-1.421741 14.04229 -11.93077 
-12.32803 22.32874 5.488913 
13.77512 -4 6.110563 
-7.247602 5.12222 -11.25 
5.115942 1.663434 11.25 
-14.31819 18.62073 -0.6357465 
12.64884 -4 -1.96322 
-15.42445 13.07078 -12.2421 
2.00738 18 -1.973221 
5.139554 18 3.842663 
-4.143989 21.35244 9.875 
-13.79735 18.63178 -11.38037 
-13.29443 13.0624 5.811757 
4.665423 -1.402211 12.25 
-11.76017 9.51766 -14 
0.3556449 -0.294274 11.25 
1.477985 18 4.601097 
1.863402 -4.75 -8.131322 
6.582694 -4 0.6207216 
-7.65825 -4 8.509843 
-7.113279 -5 -10.28317 
2.385986 1.970273 11.25 
-6.252516 18.45934 11.69678 
-2.860115 3.982976 -11.25 
13.77729 17.43647 -1.511788 
15 10.02648 2.521246 
-13.94476 15.31419 -11.87943 
12.14859 22.11831 7.700189 
1.887092 -4.75 -4.516994 
-6.132779 -5 1.954878 
3.312095 -4.75 6.604028 
-12.7402 18 10.07664 
10.86256 7.722309 14 
15 10.84578 3.411806 
15 12.14106 6.204824 
11.08281 5.444565 12.66966 
0.2622004 10.33704 12.12496 
12.47901 -5 -10.07921 
-11.59815 18.9479 -12.14932 
3.928907 -4.75 7.158082 
-1.39208 9.587087 12.91529 
-5.547274 -4 7.975269 
-11.07071 9.814507 13 
5.110868 23.14923 0.4026963 
14.5 1.840697 -3.544857 
-6.874469 -3.802874 -11.25 
15.58374 14 -7.157965 
-10.222 22.93574 -6.446083 
3.010336 19 11.89742 
-8.442997 18 -9.711791 
-8.758123 -5 1.175485 
-15.67814 14.88429 6.17565 
-1.161253 -5 -11.38781 
14.89637 6.963154 -6.21754 
-1.188844 22.67776 -9.566739 
-13.30418 13.86809 -7.182557 
-14.5 -1.39114 -0.4855752 
4.9129 8.903887 -14 
-9.496998 -4 -1.789286 
-15.5 3.359401 -3.520485 
5.056728 -4 0.6753365 
-2.749464 23.02135 6.181453 
6.801384 5.890215 -11.76336 
9.761371 -5 8.281491 
2.28463 19 -11.77818 
4.208204 22.99175 6.706488 
14.63312 6.917403 12.75723 
-14.5 0.8129468 -0.6198983 
-14.5 3.124423 2.431376 
-15.61712 5.430236 -8.420222 
-1.402395 -4.75 -2.122325 
3.003361 7.05337 -13.76418 
-14.5 1.36084 4.975509 
-5.455406 -4 6.615063 
7.427786 -4 -6.857461 
-7.961226 19.32855 -10.875 
15.91435 10.36451 -11.71798 
14.9008 6.985936 -3.397802 
-6.890131 2.994421 11.25 
13.3931 12.101 -14 
-15.5 -4.246597 -2.578876 
-9.659392 17 -11.58914 
0.2561011 13.77567 -11.94475 
6.389513 -5 -6.582689 
-15.02084 14.4267 12.53424 
14.96351 7.308546 -6.415339 
-15.94202 13.39948 10.98737 
10.47907 19.11049 -11.92727 
11.31093 3.635297 -11.25 
12.05337 18 -3.725669 
1.916786 6.601244 13.45658 
15.16326 1.309704 -11.0311 
14.44057 -3.852394 9.331865 
-0.894773 18 8.020308 
1.137406 -0.2330871 -11.25 
7.492278 -0.9175151 -11.25 
7.927416 16.73933 11.63968 
15 8.192745 -1.571141 
-5.136576 18 -1.580029 
-10.63076 -5 -4.937355 
13.71116 19 -6.400651 
-12.21393 17.97606 4.95431 
-12.12585 17.58152 3.270166 
-1.41796 0.2436172 11.25 
1.834058 23.20271 -1.216796 
-11.61676 6.90548 -13.66356 
16 12.35125 7.88976 
-0.2602038 19.10328 -11.93202 
-7.8002 18 -8.388442 
12.98342 -5 -5.561904 
9.564625 12.23556 13 
9.827904 -1.634506 -12.25 
14.2311 16.68964 -4.068881 
-8.56045 18 -7.201778 
-3.918887 -4 -1.779638 
-6.625339 18 1.771534 
-0.02830839 -1.786897 -11.25 
14.26295 -2.835892 6.191028 
-0.3631296 1.036493 12.24999 
-12.0755 17.00599 -2.427965 
-6.391261 -5 -3.831731 
10.55281 2.115363 12.24999 
13.14104 6.14129 -13.14366 
-13.6573 9.554146 13.93856 
-14.53208 18.03308 5.245098 
-14.82698 14 -0.4786377 
4.769465 -4 2.44794 
-15.18154 16.24869 -0.3103509 
14.57911 5.330982 -8.368449 
4.945778 8.111307 14 
-14.91649 16.97692 -6.280625 
-0.1665084 8.574696 13.09641 
13.03087 18 4.583147 
10.75776 15.83737 -12.26708 
-12.38423 18 3.543047 
3.91495 16.09926 -11.78113 
13.24336 -1.214331 11.25 
13.86425 18 -0.06281042 
5.78539 23.05264 4.921106 
-14.5 4.432559 3.777921 
12.375 21.05045 -2.944764 
-2.129709 -4 -2.256757 
14.60705 5.474718 -8.678997 
6.69183 22.09763 -10.72303 
5.178432 -1.56409 11.25 
-15.11377 16.43489 -7.091673 
-7.420443 9.514686 -14 
8.949359 22.99508 -4.0798 
14.66731 5.784737 1.325212 
15.15099 -4.866362 3.519577 
15.1453 16.34826 -0.935925 
-0.5330954 22.89734 7.772372 
0.4689989 -4.75 7.546357 
14.55947 16.29308 -6.486979 
5.241248 9.967723 -12.14431 
14.34056 18.55928 -3.490085 
-15.9995 11.98901 7.400486 
-11.11124 14 -13.45542 
-11.00165 3.676167 11.25 
-12.66283 18 6.895853 
13.18927 19.23796 -1.572477 
9.741485 17.4482 12.74496 
-14.96572 7.31995 -8.507576 
-1.324523 3.481767 11.25 
-12.69583 20.11379 9.080375 
14.97724 16.81002 5.180827 
-1.501724 18 7.249444 
14.5 -0.917537 7.441 
8.603364 6.829169 -13.61164 
-0.5015779 8.454452 -13.43946 
-14.32255 18.60874 11.14613 
2.391885 10.1601 -13.33824 
0.7365612 11.72507 -12.05221 
-6.122182 -4 -3.557153 
5.24776 3.781774 11.25 
12.93876 11.56471 14 
-13.87515 18 0.2942991 
0.3189893 -4 1.677022 
14.31149 5.389764 -12.20454 
16 10.30041 -0.04713631 
16 10.29951 -5.346128 
-0.1181082 12.663 -14.03496 
3.170021 -4.390097 12.22213 
-8.67638 -5 -8.257936 
0.7987376 -1.060359 12.25 
-12.875 21.35471 -2.292757 
-15.5 0.0531311 6.549169 
-12.78161 13.81324 6.481544 
-14.5 3.180359 -2.111613 
0.8362547 10.1941 -13.98689 
-11.9198 14 13.45327 
-8.04797 -0.297662 -11.25 
2.843961 7.850431 13.25727 
-0.3556149 8.086141 -13.45061 
-11.11963 15.80871 -13.34168 
-15 12.42991 -7.622178 
-8.128275 -5 -0.8537072 
15 12.4489 9.59894 
-8.955919 -4 -3.276558 
6.534981 23.02442 5.045782 
-8.977063 6.205004 -13.18701 
-15.59197 14 -1.967017 
4.800479 23.11406 -4.083706 
-6.55998 8.013388 -14 
-15.82373 14 7.921337 
8.789291 -2.58171 1.48254 
-10.3912 -3.133016 -8.870129 
4.896337 6.249527 -13.2173 
-12.04456 16.65229 -7.61738 
0.7525655 -4 -0.5071288 
-15.5 -1.127988 8.287247 
13.52805 3.963312 12.24999 
7.106437 -4 0.5874163 
-12.37494 15.8 8.2299 
-9.662505 0.4253414 11.25 
15 12.91272 -10.2232 
9.404197 8.130773 -13 
-1.513345 -4 -1.300368 
-15.16644 13.5 -3.898053 
15.5 1.61145 -10.46101 
-12.70001 18 0.5318532 
10.16413 11.37102 -14 
14.78947 -4.992062 4.242318 
-14.51632 5.007965 -1.303075 
6.357457 -3.876344 12.25 
1.302423 18 3.09224 
11.63357 5.024411 11.25 
-11.21915 22.42924 8.903468 
-2.423095 7.996587 -13.5 
-14.92439 16.95523 -7.90433 
-10.44879 -4 -6.882402 
2.052788 18 2.831882 
-0.2032022 18 -6.253692 
-2.87011 -4 4.088863 
-14.91818 16.97226 5.167844 
5.876307 23.11587 1.816684 
15.30965 15.89672 0.6820576 
4.837476 18 2.789754 
-13.48364 8.982442 -12.75468 
-5.329015 9.05064 12.9 
6.735367 16.93337 11.31423 
13.72534 11.73458 -12.52699 
-11.03944 -4.402194 -9.742767 
-14.5 4.173516 4.994545 
1.840714 14.07457 -11.92908 
-9.570205 -2.645926 -1.38225 
-1.743983 -3.455959 11.25 
-15.43792 12.9751 -12.22863 
-9.091327 14.44251 13.83894 
-14.39738 1.93566 10.67598 
14.5 0.4718876 10.05811 
1.148767 18 -1.468719 
-3.910786 3.443514 -12.24999 
12.35382 -4.829282 -11.95674 
-13.92501 18.51915 -4.267055 
14.06895 -4 -5.047131 
14.5 -0.8941483 -7.585903 
0.3323774 8.685423 12.21151 
3.146986 0.5403829 -11.25 
-14.5 -2.774605 1.695607 
5.343187 -4 9.468138 
-11.17615 -4.588817 -8.348475 
-2.535258 -4 5.700821 
11.07848 17.08706 -11.18549 
-8.015282 -5 -7.606663 
-15 8.460104 6.794995 
14.5 0.4418837 -3.307121 
-7.182001 -5 -5.593817 
-15.40445 -4.594571 9.88096 
8.165374 0.5602067 12.24999 
6.010946 13.127 13.15676 
-11.27473 -4 8.897852 
15.5 -3.598217 2.475641 
6.65592 -5 8.737834 
-15.9389 14 -9.383869 
10.89319 18 11.71774 
2.407732 18 4.602573 
-3.690037 8.026974 13.5 
1.85702 3.619488 -12.24999 
-7.923733 22.25711 -10.46575 
-1.605231 9.711178 12.15776 
-2.360418 1.237876 -11.25 
-13.51092 19 -12.00185 
10.91269 5.634412 12.79882 
-4.007658 18 -7.959332 
-13.17394 16.99764 5.485886 
14.5 -1.133747 7.920539 
14.98153 16.79822 -1.997988 
-13.43656 17 2.856892 
-6.526896 13.04582 -13.81636 
-8.727049 16.04096 -13.25715 
1.022611 14.12344 -11.92652 
1.474721 18 11.15569 
-0.6666036 -4.597102 12.15276 
-13.41097 19.25 -4.998729 
-15.56426 5.158299 2.252065 
2.044964 17.08424 11.18831 
8.514623 -1.491972 -11.25 
14.5 -1.086418 -3.071202 
2.269498 18 8.63958 
-4.377164 12.78768 -13.74726 
14.60856 5.482504 0.6904037 
-8.231271 -3.05783 -0.1926203 
9.151289 18 11.02167 
-15.5 -3.84051 -7.133357 
-3.264934 1.74493 11.25 
12.56256 18 7.052157 
4.540904 18.23216 11.77947 
15 7.952494 -3.93186 
15.46066 13.5 -6.926996 
2.432055 3.203996 11.25 
-3.116032 23.13948 -4.124159 
14.5 -1.657426 3.402011 
2.138239 23.1341 -4.887804 
-15.5 1.665195 8.894341 
-8.393486 14.4506 13.83599 
-16 11.60337 4.77136 
-5.286846 -4 8.969326 
-11.3098 4.282719 11.25 
-4.839862 7.399555 12.82858 
-1.494277 5.948466 -11.80299 
13.69672 -2.827395 12.25 
-12.14006 17.7439 -2.94996 
3.248091 15.47639 13.46264 
15.5 4.37472 -4.979347 
14.5 2.526651 -4.131547 
12.03463 6.007605 -11.84323 
-3.98611 10.16782 -13.4855 
14.86235 7.851157 11.31193 
-15.5 2.510285 -1.906467 
-14.70092 10.58176 -11.55142 
5.716449 21.12922 9.875 
-16 8.134106 -7.459067 
-14.5 -1.195048 -10.16774 
12.1811 22.12441 -5.232393 
-3.724845 21.07096 9.875 
12.39137 19.25 1.369066 
-15.39037 -4.615644 4.882933 
9.365702 -4.664237 0.7035143 
7.942711 22.63424 -9.649641 
-15.99721 8.912912 10.47721 
4.955395 18 -10.38928 
-9.020918 1.276943 12.24999 
14.17076 16.10199 -9.893698 
12.57624 0.6537024 -12.24999 
13.44349 19.08586 -11.43328 
-3.03631 -0.7819362 12.24999 
-15.92753 7.02717 -2.324649 
14.49779 -2.232193 -10.26963 
-15.10103 16.46989 6.234177 
14.5 3.770223 3.581509 
-15 7.58068 -2.114614 
-9.774496 18 -5.093763 
14.5 -1.056996 1.58618 
-8.893273 12.55971 14 
15.55703 5.121132 7.732022 
14.76165 7.492236 -11.40684 
-14.66877 5.792281 -0.4639084 
-11.85153 -2.75 -9.755456 
-5.006294 -5 11.42625 
13.1721 19.2414 3.22536 
-1.420887 23.15375 3.532052 
15 8.596928 -5.477442 
14.5 2.294962 -2.526089 
11.07076 2.964805 -12.24999 
-15.9986 11.65324 10.78288 
15.69408 5.826182 2.396146 
-12.20677 16.16623 12.05009 
9.065605 13.47935 -13.82705 
-8.832445 13.09021 14 
-14.92277 16.95966 2.115749 
-1.141252 -4 -7.785075 
14.73743 17.46887 -9.876715 
-14.71114 17.54112 -9.957356 
12.35826 15.21029 12.49531 
-12.875 20.51055 0.4904625 
-11.37938 22.71591 -7.231484 
-15 8.853604 2.151352 
9.684211 18 5.450937 
14.5 -3.938105 -4.497633 
12.33493 22.02571 3.19237 
-11.62773 -4 7.972512 
15 9.504337 8.778984 
11.61557 -4.460287 7.831347 
-12.07292 16.97648 -6.126899 
2.729651 14.29674 13.892 
3.531784 -4.75 -2.756787 
-5.316977 -5 -7.575343 
-5.426357 -5 5.082608 
-3.070418 0.02892512 12.24999 
7.607242 -1.955123 -0.5469135 
0.283006 2.526844 11.25 
-12.14601 17.81194 -8.917223 
-15 13.36521 -1.383813 
-3.627692 3.042414 11.25 
-10.62202 -4 4.921563 
0.8560255 18 6.167963 
5.139342 15.92569 13.29911 
9.304235 6.734947 12.33806 
8.417192 -4 4.870654 
-2.669649 23.19207 0.4849161 
-4.481164 18 -5.056997 
14.5 0.3095413 0.2064815 
-12.18576 18 -7.218179 
-14.5 4.248644 3.652998 
4.040246 8.350524 -13.5 
2.140347 2.092144 -11.25 
-5.996494 10.86436 -13.93093 
8.69488 7.127184 -12.60491 
-14.78785 -1.066024 -11.40652 
-3.770765 8.569815 13.23619 
-5 -4.999175 -9.222528 
15 9.847326 -2.042399 
10.26472 22.88899 1.71572 
-14.05425 10.38356 -13.6123 
-4.658292 18 -3.356816 
-14.52606 5.058067 3.072248 
12.96704 18.64388 -11.62962 
-13.27523 15.97927 0.6821831 
-13.95706 19 -0.3564134 
8.287766 -5 6.972796 
7.83144 -2.254887 -0.932444 
-16 7.87875 -9.881923 
-13.17074 19 -11.84545 
-14.90414 17.01084 -2.336716 
7.582541 19.25 10.23841 
11.8641 2.442022 -12.24999 
-4.243276 18 9.307677 
-5.028543 -5 6.35782 
1.034574 -4 5.069212 
-7.965497 -1.387379 11.25 
-3.77034 7.088492 12.7958 
-15.88262 13.45889 2.398206 
-5.317452 16.80457 11.3886 
-8.686069 4.215458 12.24999 
6.394345 -5 -11.22785 
13.06074 -5 0.9173466 
-14.07964 18.09433 -9.620735 
-15.5 -1.740819 6.107473 
-3.592511 6.015478 13.05807 
16 12.30239 9.667294 
-4.688 18 0.6834383 
1.604103 -0.1438771 11.25 
12.47362 18 9.614481 
7.909884 13.39757 13 
-16 9.265377 -9.463919 
-3.072703 9.523928 -12.9186 
15.5 -2.537895 1.742441 
-6.867783 7.188549 -12.9691 
-2.21095 -4.75 -2.375477 
-1.418841 9.284613 12.18011 
-16 12.76519 0.9148941 
11.12912 -5 0.4327842 
-2.469241 18 4.288433 
1.141014 18 -4.776469 
10.94861 18 -7.819426 
-14.2003 -4 3.666539 
-9.371724 -4 -2.464733 
-12.15282 10.98347 -14 
-11.7997 -5 2.750409 
5.548946 1.421462 -11.25 
-12.80415 13.00511 6.305936 
14.80283 14.36539 7.320749 
-8.282626 -5 10.31557 
-0.6434703 -5 -11.12793 
10.52509 17.49693 -10.77562 
14.56082 8.733952 -11.69151 
14.5 -0.1834748 -9.367659 
-13.75972 14.15297 -12.37337 
-8.330352 -5 -3.621064 
-9.866233 2.45 -11.56861 
15.5 -2.451773 10.27345 
13.8757 -1.75 10.97628 
-10.19338 9.07373 14 
-8.744825 -5 -7.729319 
-3.714336 12.34352 -12.0198 
6.5 12.63116 13.44895 
-14.02138 16.42601 3.351159 
11.62009 10.53524 13 
12.73931 7.620616 14 
14.03354 1.484817 11.08732 
-10.86568 -5 -6.617757 
6.003789 12.89218 13.49699 
15.13563 16.37484 -2.994209 
9.223734 9.040787 13 
3.371793 9.7 -13.015 
5.041686 -3.017503 12.25 
-14.82389 14.22114 8.102326 
14.65858 17.68552 5.237739 
-4.484704 8.606411 13.02872 
-9.369932 -2.5 -0.4045998 
-13.25853 0.5709226 11.25 
15.5 0.7248116 0.258314 
-2.369997 23.16068 -3.310748 
-4.143335 1.104414 12.24999 
-7.267368 18 4.495095 
0.03434944 18 -9.26973 
7.840827 19 11.39275 
-16 10.92234 -3.833537 
-5.941802 8.671719 -12.44858 
4.881146 18 7.277452 
15.5 4.116006 8.514907 
-1.012197 8.71352 -14 
10.29309 18 1.073843 
-7.454952 -0.5978371 -12.25 
10.12801 19 11.86615 
-13.80558 19.2041 1.260724 
-2.40052 1.874965 -12.25 
-2.101301 15.85623 13.32439 
-5.9448 13.54833 -11.95666 
3.252775 10.38775 -14.43965 
9.612814 18 -10.0331 
-14.5 4.42377 9.688292 
6.918371 4.308249 12.24999 
9.618618 -5 -8.268051 
15 12.75874 -5.063072 
11.47386 3.467011 11.25 
8.030563 -1.74244 0.6223745 
3.808582 19 11.30888 
4.963707 -4.75 -1.018407 
-0.8063278 18.97652 -12.10844 
1.831228 18.38485 -11.7239 
3.245385 10.66365 -14.25937 
13.77109 17.79187 5.719494 
2.817459 6.505682 12.18208 
3.581234 3.43118 -12.24999 
-15.15184 14 0.2318019 
-1.539732 5.600904 -11.56653 
15.5 0.6514971 -9.720539 
-15.5 -4.115698 4.457679 
4.210493 -4 -6.617259 
-8.326054 -1.74244 -0.6025157 
-7.850395 -4.594226 12.15468 
7.761353 -5 -7.466963 
13.02434 15.11161 13.59541 
-14.38614 9.734511 -13.28041 
13.2963 12.82828 12.88403 
15.5 -3.618667 3.308429 
-13.78057 10.2991 -13.87843 
14.5 0.08460796 4.547972 
5.095364 22.92045 7.555384 
-13.14111 -3.621214 -12.25 
9.560928 17.24352 11.02903 
12.03449 16.61609 11.98364 
14.02159 11.47757 -12.23075 
15 11.70195 6.923873 
4.80696 -4.039504 12.25 
15.19555 16.2102 -10.13261 
-8.277687 23.0335 2.761959 
-5.59671 17.19624 -11.07631 
11.78786 -4 -6.848227 
12.02832 -4.334678 -12.23316 
14.5 -0.1563289 2.630096 
-13.77239 6.189462 11.67502 
-3.258436 1.051608 -11.91108 
-15.95168 7.151435 5.762459 
13.92234 18 -10.51942 
12.375 21.80934 0.1305455 
-5.631045 7.512324 -12.9358 
-14.5 0.863332 -3.361953 
16 9.974939 0.3172393 
2.478694 23.19581 -1.048408 
-1.619828 18 9.542735 
-10.50116 8.627579 13 
6.153216 9.947895 13.49325 
15.5 1.881664 -3.628892 
-15.33937 15.81506 -6.771452 
6.14949 8.819564 -13.46704 
4.355212 8.335023 14 
3.722633 9.591206 12.97824 
